20223.00,19967.00,19455.00,18431.00,19199.00,16381.00,16891.00,16122.00,16890.00,17657.00,18680.00,19703.00,20470.00,20471.00,20473.00,19962.00,19455.00,20477.00,21243.00,21497.00,21754.00,21756.00,21246.00,21503.00,21503.00,21502.00,21757.00,21503.00,22015.00,22271.00,22015.00,23039.00,23807.00,23295.00,23039.00,23551.00,24063.00,24575.00,25087.00,25599.00,25598.00,25598.00,25342.00,25342.00,26110.00,26110.00,25598.00,25597.00,25596.00,26108.00,26620.00,27389.00,27390.00,27902.00,28671.00,29439.00,30463.00,32766.00,34559.00,35839.00,37375.00,40190.00,43513.00,47353.00,50940.00,52221.00,53243.00,54776.00,57337.00,57340.00,57597.00,58623.00,59135.00,59391.00,59903.00,60668.00,60922.00,59896.00,59117.00,58851.00,59369.00,59610.00,59585.00,59326.00,59083.00,57800.00,55489.00,54211.00,53188.00,51134.00,48555.00,47746.00,47468.00,46225.00,46761.00,47286.00,41700.00,40191.00,39935.00,39423.00,37887.00,37116.00,37118.00,37631.00,38140.00,42238.00,45311.00,48127.00,50175.00,50687.00,50431.00,46591.00,40191.00,35071.00,32511.00,33279.00,34815.00,45053.00,55295.00,57343.00,55807.00,54527.00,55039.00,53759.00,52221.00,51966.00,51693.00,52648.00,52897.00,53407.00,53407.00,56226.00,57766.00,56745.00,53417.00,47529.00,40103.00,35240.00,38056.00,38565.00,39589.00,39334.00,39073.00,39327.00,39322.00,44701.00,43421.00,40090.00,48541.00,52132.00,45991.00,48810.00,47281.00,39090.00,37556.00,36022.00,35000.00,31165.00,29375.00,29634.00,30919.00,30919.00,30662.00,30663.00,30662.00,30659.00,30658.00,30401.00,30140.00,29871.00,29860.00,29830.00,29815.00,30069.00,30061.00,29552.00,29042.00,28785.00,28273.00,28274.00,29299.00,29299.00,28788.00,29046.00,29044.00,28532.00,28021.00,27762.00,28005.00,27993.00,27736.00,28249.00,28763.00,28502.00,27993.00,28239.00,28499.00,28248.00,27738.00,27741.00,27741.00,27480.00,27490.00,27245.00,26986.00,27243.00,27758.00,28012.00,27501.00,27500.00,27243.00,27243.00,27243.00,26986.00,27241.00,27240.00,27238.00,27752.00,27496.00,27239.00,27238.00,26981.00,27493.00,27494.00,27494.00,27493.00,27234.00,27232.00,27231.00,27232.00,26976.00,26720.00,27486.00,27229.00,27229.00,26976.00,26977.00,26975.00,26974.00,27230.00,27746.00,27485.00,27483.00,27485.00,27231.00,26718.00,26717.00,26715.00,26971.00,27227.00,27742.00,27997.00,27737.00,27223.00,26967.00,26968.00,27224.00,27223.00,27225.00,27227.00,27227.00,27481.00,27480.00,27477.00,26964.00,26708.00,26453.00,26709.00,27478.00,27222.00,26965.00,27477.00,27728.00,27728.00,27730.00,27221.00,26963.00,27473.00,27729.00,27729.00,26964.00,27217.00,26959.00,27212.00,27474.00,27493.00,27252.00,27255.00,27515.00,27517.00,27777.00,27520.00,27007.00,27516.00,28025.00,28028.00,27772.00,27520.00,28008.00,27997.00,27983.00,27725.00,27215.00,26717.00,26471.00,27245.00,29036.00,29543.00,29538.00,30052.00,29797.00,30049.00,30050.00,31845.00,27500.00,25197.00,31085.00,34926.00,34927.00,37743.00,37998.00,33138.00,27253.00,23927.00,23160.00,23675.00,29307.00,43132.00,46973.00,45950.00,44156.00,44924.00,44925.00,44669.00,43902.00,44671.00,44930.00,45694.00,45947.00,46712.00,47221.00,46709.00,45942.00,46198.00,46962.00,47983.00,47463.00,48992.00,48734.00,49757.00,49499.00,48473.00,50522.00,49498.00,49755.00,49501.00,48736.00,47460.00,47207.00,50280.00,51046.00,51813.00,52323.00,51811.00,50533.00,52072.00,51822.00,52341.00,52345.00,53625.00,54393.00,54395.00,55166.00,54909.00,54898.00,54883.00,54621.00,55645.00,56673.00,57445.00,58216.00,58991.00,59256.00,59004.00,58492.00,58741.00,58734.00,59240.00,59492.00,60250.00,60758.00,61525.00,62288.00,62285.00,62287.00,62800.00,63312.00,63572.00,63315.00,63571.00,63061.00,63575.00,63577.00,63577.00,63832.00,64091.00,64094.00,64097.00,64353.00,64612.00,64872.00,65128.00,65378.00,65371.00,65366.00,65370.00,65372.00,64860.00,63835.00,64603.00,65374.00,64865.00,64350.00,64348.00,64602.00,64328.00,64830.00,60734.00
20223.00,20479.00,19967.00,19199.00,18687.00,17662.00,16380.00,15354.00,16376.00,18169.00,18425.00,19192.00,19448.00,18680.00,18681.00,18682.00,19197.00,19963.00,20731.00,21242.00,21242.00,21501.00,22015.00,22015.00,21503.00,20734.00,20479.00,20479.00,20479.00,20991.00,21503.00,22783.00,23295.00,23295.00,23551.00,23807.00,24063.00,24319.00,24319.00,24575.00,25087.00,25343.00,25855.00,25343.00,24831.00,25087.00,25855.00,26879.00,27134.00,27135.00,26367.00,26367.00,26879.00,27903.00,28415.00,29183.00,29695.00,32254.00,32255.00,34815.00,37886.00,42238.00,46074.00,49653.00,50937.00,50942.00,50687.00,52734.00,55039.00,55551.00,56575.00,57855.00,59135.00,59391.00,59647.00,60415.00,60670.00,61183.00,60658.00,59634.00,58859.00,58277.00,58290.00,59100.00,58605.00,57834.00,56546.00,55268.00,54495.00,54743.00,52688.00,51617.00,50288.00,48509.00,48254.00,50337.00,50620.00,43752.00,40447.00,40191.00,39423.00,39167.00,39423.00,38654.00,38143.00,40447.00,44031.00,48895.00,51967.00,52991.00,52735.00,47615.00,40703.00,32255.00,22783.00,28158.00,34558.00,43003.00,55805.00,58367.00,55039.00,52223.00,50687.00,50687.00,51455.00,51967.00,52220.00,52909.00,52894.00,53918.00,54430.00,55712.00,58534.00,57258.00,52908.00,48816.00,42930.00,35503.00,36528.00,37802.00,39333.00,40104.00,40099.00,39834.00,39060.00,44951.00,49554.00,42640.00,41362.00,51871.00,49829.00,44969.00,47272.00,42154.00,36017.00,37554.00,36533.00,34494.00,33730.00,31678.00,29377.00,29126.00,29891.00,30404.00,30148.00,29890.00,29123.00,28352.00,28604.00,28841.00,28820.00,28800.00,29043.00,28531.00,27759.00,28018.00,28274.00,28018.00,27506.00,27762.00,28531.00,28532.00,28021.00,28277.00,28532.00,28018.00,28018.00,27760.00,27491.00,27479.00,27480.00,27736.00,26965.00,26953.00,27482.00,27721.00,27985.00,27480.00,27219.00,26970.00,27224.00,26965.00,26719.00,26474.00,26474.00,26985.00,27498.00,27495.00,27243.00,26986.00,26731.00,26476.00,26474.00,26473.00,26728.00,26726.00,26726.00,26982.00,26982.00,26726.00,26469.00,26724.00,26982.00,26979.00,26981.00,26980.00,26722.00,26722.00,26721.00,26975.00,27486.00,27486.00,28254.00,27998.00,27744.00,27233.00,26720.00,26975.00,27487.00,27487.00,27484.00,27998.00,27488.00,26974.00,26717.00,26973.00,26970.00,27225.00,27225.00,27483.00,27995.00,27994.00,27991.00,27478.00,27223.00,26969.00,27222.00,27222.00,27223.00,27479.00,27736.00,27992.00,27991.00,27987.00,27478.00,27478.00,27478.00,27478.00,27733.00,27734.00,27734.00,27475.00,27473.00,27732.00,27986.00,27731.00,26962.00,26963.00,27733.00,27988.00,27992.00,27729.00,27470.00,27470.00,27472.00,27743.00,27767.00,28027.00,28284.00,28796.00,29052.00,29050.00,28537.00,28534.00,28789.00,28534.00,28538.00,28537.00,28519.00,28507.00,28235.00,27725.00,27475.00,27737.00,28259.00,28259.00,28770.00,29541.00,30312.00,31335.00,32618.00,33382.00,33637.00,34152.00,35178.00,35435.00,35181.00,34672.00,34417.00,35697.00,37238.00,33911.00,28793.00,25723.00,23166.00,22909.00,27260.00,42109.00,47233.00,45951.00,44669.00,45178.00,45433.00,44923.00,45691.00,46201.00,45176.00,45688.00,46199.00,46455.00,47224.00,46712.00,45173.00,46196.00,47473.00,47983.00,48749.00,49260.00,49768.00,50019.00,49760.00,49757.00,50267.00,50014.00,50268.00,51032.00,50777.00,48731.00,47965.00,50786.00,50789.00,50274.00,50532.00,51559.00,52073.00,51817.00,51562.00,52595.00,54135.00,54395.00,54390.00,53879.00,54129.00,53617.00,53360.00,54894.00,55914.00,56421.00,57447.00,57960.00,58218.00,58474.00,58473.00,58995.00,58742.00,58730.00,58976.00,59483.00,59990.00,60497.00,61006.00,61008.00,61260.00,61260.00,62028.00,62543.00,62291.00,62296.00,62552.00,62293.00,62801.00,63318.00,63317.00,63572.00,64088.00,63839.00,63588.00,63851.00,64364.00,64622.00,64878.00,64878.00,64874.00,64868.00,64868.00,65122.00,65372.00,64862.00,64349.00,64094.00,63841.00,64098.00,64343.00,64602.00,64858.00,63560.00,64323.00,61506.00
19711.00,19711.00,18943.00,18431.00,18687.00,17663.00,16381.00,15100.00,16376.00,17657.00,18681.00,19449.00,19449.00,18681.00,18425.00,18171.00,19196.00,19963.00,21245.00,21756.00,21499.00,21501.00,21759.00,21502.00,22271.00,20991.00,20479.00,20223.00,20223.00,20991.00,21503.00,22527.00,23807.00,23807.00,23807.00,23807.00,23807.00,24063.00,24063.00,24575.00,24831.00,24831.00,25087.00,24831.00,24575.00,24575.00,24831.00,25343.00,26365.00,25855.00,25087.00,25599.00,26367.00,27647.00,28671.00,29439.00,29951.00,31999.00,32767.00,35071.00,36862.00,42238.00,47355.00,50422.00,50938.00,50173.00,50175.00,52477.00,54783.00,55551.00,57087.00,58367.00,59135.00,59135.00,59647.00,60415.00,60415.00,60927.00,60924.00,60150.00,59347.00,59030.00,58832.00,58864.00,58616.00,57598.00,56050.00,54764.00,55015.00,57313.00,58074.00,57260.00,54652.00,52142.00,50085.00,48021.00,49571.00,44462.00,41182.00,41215.00,41471.00,41471.00,40700.00,39160.00,38648.00,41471.00,45055.00,50175.00,53247.00,54015.00,52991.00,47359.00,41727.00,31231.00,20735.00,27902.00,36861.00,41723.00,50685.00,55807.00,52479.00,48895.00,47615.00,49151.00,50173.00,51455.00,52223.00,52405.00,52639.00,53662.00,54176.00,54948.00,57001.00,56747.00,53933.00,50353.00,43954.00,34726.00,33704.00,36011.00,39076.00,39837.00,39577.00,39317.00,37011.00,43406.00,51335.00,47238.00,41616.00,48800.00,51621.00,45737.00,46250.00,43440.00,36271.00,34988.00,36276.00,35004.00,31679.00,30146.00,29119.00,29893.00,29891.00,29635.00,30149.00,29893.00,29379.00,29115.00,28851.00,28573.00,28549.00,28531.00,28523.00,28527.00,28014.00,28018.00,27503.00,28016.00,27761.00,28019.00,28532.00,28277.00,27765.00,28277.00,28020.00,28018.00,28020.00,28019.00,27747.00,27479.00,27479.00,27477.00,27214.00,27211.00,27479.00,27215.00,27222.00,26968.00,26710.00,26968.00,27222.00,27218.00,26974.00,26733.00,26732.00,26984.00,27496.00,27498.00,26986.00,27242.00,27243.00,27243.00,26986.00,26473.00,26216.00,26217.00,27240.00,26984.00,26726.00,26471.00,26470.00,26726.00,26727.00,26724.00,26977.00,26978.00,26722.00,26723.00,26722.00,26976.00,27231.00,27487.00,27999.00,27487.00,27232.00,26977.00,26720.00,27232.00,27487.00,27230.00,27231.00,27485.00,27486.00,27229.00,27229.00,27227.00,26970.00,27228.00,27228.00,27483.00,27738.00,27993.00,27992.00,27735.00,27224.00,27224.00,27479.00,27480.00,27480.00,27478.00,27733.00,27734.00,27479.00,27480.00,27220.00,27477.00,27478.00,27478.00,27477.00,27477.00,27477.00,27732.00,27475.00,27476.00,27732.00,27733.00,27220.00,27477.00,28246.00,28248.00,28249.00,27987.00,27983.00,27726.00,27472.00,27486.00,27767.00,27515.00,28540.00,28796.00,28797.00,28539.00,28537.00,28791.00,28533.00,28534.00,28281.00,28538.00,28776.00,28508.00,28237.00,27725.00,27220.00,27739.00,28000.00,28261.00,28518.00,29291.00,29808.00,30833.00,32372.00,33651.00,34162.00,34675.00,35189.00,35445.00,35190.00,34680.00,34683.00,35708.00,36728.00,34169.00,29563.00,27005.00,23676.00,23419.00,27258.00,42362.00,46714.00,45942.00,44659.00,44912.00,45680.00,45683.00,45942.00,45940.00,46191.00,46193.00,46451.00,46710.00,47482.00,47738.00,47225.00,47738.00,46464.00,46975.00,48514.00,49796.00,49793.00,49529.00,49261.00,49762.00,49252.00,49506.00,50015.00,50523.00,50267.00,48476.00,48733.00,51552.00,50786.00,49766.00,50280.00,51561.00,51563.00,51051.00,51563.00,52846.00,53874.00,54647.00,54392.00,54393.00,54387.00,54133.00,54391.00,55671.00,55155.00,56433.00,57453.00,57707.00,57969.00,58482.00,58222.00,58483.00,58727.00,58971.00,59219.00,59730.00,60242.00,60498.00,60752.00,60752.00,61516.00,61516.00,62028.00,62287.00,62290.00,62294.00,62295.00,62294.00,62804.00,63319.00,63319.00,63576.00,64093.00,63844.00,63594.00,64112.00,64375.00,64628.00,64879.00,64877.00,64875.00,64871.00,64871.00,65126.00,65377.00,64865.00,64354.00,64102.00,63850.00,64107.00,64348.00,64601.00,65117.00,63821.00,64324.00,62274.00
19711.00,19455.00,18943.00,18943.00,19453.00,18684.00,17149.00,15611.00,17912.00,18680.00,19961.00,20472.00,20472.00,20472.00,20728.00,20474.00,20731.00,21243.00,22269.00,23036.00,22524.00,22524.00,22781.00,22526.00,23039.00,22271.00,21759.00,21247.00,21503.00,22271.00,22527.00,22783.00,23807.00,24063.00,24319.00,24319.00,24063.00,23807.00,24063.00,24319.00,23807.00,23807.00,23807.00,23806.00,23550.00,23551.00,23294.00,23295.00,24063.00,23295.00,23295.00,24063.00,24831.00,26367.00,27903.00,29183.00,30207.00,31487.00,33023.00,35327.00,36350.00,42239.00,48891.00,50936.00,50683.00,49149.00,49404.00,50939.00,52477.00,53759.00,55038.00,57599.00,58367.00,58623.00,59901.00,60927.00,60927.00,60669.00,60664.00,60150.00,59822.00,59818.00,59628.00,59386.00,59384.00,58353.00,56308.00,54259.00,56045.00,60385.00,61412.00,58550.00,55675.00,54198.00,52956.00,51171.00,49848.00,47755.00,44431.00,43478.00,44031.00,44287.00,43519.00,41983.00,42236.00,44031.00,47103.00,50943.00,53503.00,54271.00,52735.00,46847.00,39167.00,30207.00,19711.00,25855.00,37375.00,41727.00,45567.00,52223.00,52479.00,48383.00,46591.00,47615.00,48639.00,51199.00,54015.00,54462.00,56229.00,56737.00,56738.00,56228.00,56743.00,57000.00,55206.00,52392.00,48291.00,38822.00,36006.00,38560.00,42390.00,42635.00,41090.00,39549.00,39036.00,39045.00,46482.00,50580.00,44440.00,45468.00,51874.00,46765.00,48298.00,47786.00,39852.00,33970.00,33205.00,29111.00,22459.00,20670.00,27064.00,29630.00,29121.00,28610.00,29376.00,29117.00,28601.00,28850.00,28587.00,28565.00,28540.00,28274.00,28271.00,28017.00,27505.00,27250.00,27248.00,28016.00,28018.00,28019.00,28276.00,28020.00,27507.00,28275.00,27762.00,27760.00,28020.00,28274.00,28000.00,27989.00,27989.00,27730.00,27723.00,27726.00,27475.00,27220.00,27224.00,27222.00,27224.00,27223.00,27477.00,27471.00,27228.00,27242.00,26985.00,26982.00,27239.00,27757.00,27757.00,28012.00,28267.00,28265.00,28008.00,27240.00,26473.00,26219.00,27243.00,26987.00,26730.00,26475.00,26475.00,26729.00,26728.00,26725.00,26722.00,26979.00,27235.00,27235.00,27234.00,26977.00,26722.00,26977.00,27485.00,26974.00,26975.00,26975.00,26977.00,26979.00,27236.00,27235.00,26977.00,26973.00,26972.00,27228.00,27483.00,27482.00,27225.00,27227.00,27225.00,27225.00,27225.00,27480.00,27479.00,27478.00,27221.00,27221.00,27479.00,27480.00,27480.00,27735.00,27734.00,27477.00,27477.00,27223.00,26963.00,27220.00,27477.00,27477.00,27477.00,27476.00,27476.00,27730.00,27728.00,27729.00,27732.00,27987.00,27987.00,27988.00,28245.00,28247.00,28503.00,28243.00,28495.00,28495.00,27984.00,28000.00,28280.00,27771.00,28286.00,28541.00,28542.00,28541.00,28794.00,28537.00,28281.00,28538.00,28795.00,29055.00,28781.00,28257.00,28243.00,27983.00,27737.00,27995.00,27756.00,28275.00,28530.00,28530.00,28788.00,29811.00,31349.00,32884.00,33910.00,34167.00,34681.00,34938.00,34938.00,34937.00,34680.00,35960.00,36985.00,34681.00,29050.00,26488.00,22132.00,21875.00,25201.00,40558.00,45677.00,46186.00,45159.00,45157.00,46436.00,46436.00,46692.00,46689.00,45918.00,45919.00,46178.00,46698.00,46961.00,47478.00,48251.00,48000.00,46472.00,46470.00,48264.00,50055.00,49796.00,49027.00,49273.00,50289.00,50539.00,50789.00,51040.00,51805.00,51292.00,50013.00,51038.00,52831.00,53346.00,51820.00,52333.00,53609.00,53097.00,52331.00,52333.00,52586.00,54126.00,55662.00,55409.00,55410.00,55919.00,55671.00,55933.00,56449.00,55934.00,56952.00,57465.00,57727.00,58497.00,59007.00,58484.00,58467.00,59223.00,59217.00,59216.00,59476.00,59991.00,60246.00,60755.00,61007.00,61260.00,61259.00,61516.00,61775.00,62034.00,61781.00,61526.00,61272.00,61782.00,62297.00,62556.00,62811.00,63324.00,63070.00,63073.00,63333.00,63337.00,63848.00,64361.00,64360.00,64361.00,64612.00,64865.00,64864.00,64860.00,64351.00,63846.00,63853.00,63858.00,64116.00,64353.00,64603.00,64865.00,64339.00,64326.00,62786.00
19967.00,19455.00,19199.00,19199.00,19453.00,18685.00,17149.00,15612.00,17659.00,18683.00,20219.00,20730.00,20984.00,21240.00,21751.00,21753.00,22012.00,21755.00,22268.00,22523.00,22268.00,22525.00,23037.00,23037.00,22527.00,22271.00,22271.00,21759.00,21759.00,22527.00,23039.00,23295.00,23551.00,24063.00,24319.00,24063.00,24063.00,24063.00,24319.00,24575.00,23807.00,24063.00,24063.00,24063.00,23806.00,23550.00,23294.00,23295.00,23807.00,23295.00,23295.00,24063.00,24575.00,25855.00,27647.00,29183.00,30975.00,31743.00,32767.00,34815.00,36095.00,43007.00,49916.00,50938.00,50680.00,49147.00,49916.00,50684.00,51453.00,51966.00,52989.00,55807.00,57087.00,57342.00,58366.00,59388.00,59647.00,59390.00,59382.00,59375.00,59298.00,59339.00,59626.00,59891.00,59901.00,59632.00,57587.00,54761.00,56044.00,63204.00,64748.00,60088.00,56958.00,54432.00,52197.00,50935.00,51967.00,51940.00,49045.00,46464.00,44744.00,44018.00,44538.00,43775.00,43775.00,45302.00,47613.00,50943.00,53503.00,54527.00,53247.00,47359.00,37375.00,29695.00,19455.00,20991.00,31999.00,36863.00,40703.00,49151.00,52735.00,49663.00,46591.00,47103.00,48383.00,50431.00,53247.00,53956.00,54176.00,54945.00,54691.00,54178.00,54435.00,55461.00,55208.00,53165.00,49828.00,40618.00,35734.00,36991.00,40570.00,41848.00,41335.00,40573.00,36987.00,39042.00,44435.00,51350.00,48797.00,44444.00,51104.00,48299.00,44978.00,45486.00,40617.00,33200.00,30392.00,25789.00,17853.00,15287.00,24761.00,29109.00,29364.00,28855.00,29627.00,28860.00,28602.00,28853.00,28842.00,28562.00,28538.00,28275.00,28016.00,28017.00,27250.00,26994.00,27250.00,28019.00,28020.00,28020.00,28276.00,27762.00,27506.00,28019.00,27506.00,27760.00,28018.00,28271.00,28000.00,27990.00,27992.00,27734.00,27986.00,27733.00,27476.00,27481.00,27738.00,27992.00,27994.00,27480.00,27735.00,27471.00,27485.00,27497.00,27239.00,26985.00,26985.00,27242.00,27757.00,27756.00,27754.00,28009.00,28265.00,27753.00,26985.00,26474.00,26729.00,26730.00,26730.00,26731.00,26474.00,26727.00,26983.00,27493.00,26980.00,26980.00,27236.00,27235.00,27234.00,26978.00,26978.00,26977.00,27233.00,27233.00,27489.00,27487.00,27231.00,26977.00,27235.00,27491.00,26975.00,26716.00,26716.00,27228.00,27484.00,27483.00,27225.00,27226.00,27224.00,27224.00,27481.00,27480.00,27479.00,27222.00,26966.00,26966.00,27480.00,27479.00,27222.00,27478.00,27735.00,27734.00,27477.00,27477.00,27223.00,27222.00,27221.00,27221.00,27477.00,27476.00,27732.00,27476.00,27471.00,27727.00,27986.00,28241.00,28241.00,27987.00,28241.00,28243.00,28500.00,28497.00,28494.00,28239.00,28242.00,28257.00,28534.00,28025.00,28028.00,28284.00,28541.00,28795.00,28793.00,28280.00,28278.00,28792.00,29049.00,29056.00,28782.00,28511.00,28502.00,28237.00,28247.00,28505.00,28526.00,28792.00,28793.00,28794.00,29306.00,30331.00,31609.00,32886.00,33403.00,33913.00,34168.00,34680.00,34936.00,35191.00,34932.00,35955.00,37747.00,35442.00,29296.00,26733.00,22121.00,22120.00,24677.00,39521.00,45150.00,46685.00,46175.00,45666.00,46181.00,45928.00,45929.00,45927.00,44908.00,45673.00,45927.00,46185.00,45933.00,45937.00,46965.00,46459.00,46967.00,47225.00,48251.00,49267.00,49261.00,49265.00,49777.00,51059.00,50544.00,50795.00,50534.00,51299.00,51296.00,50526.00,51550.00,52320.00,52321.00,51308.00,51821.00,53098.00,53098.00,52335.00,51062.00,50549.00,53361.00,54895.00,54129.00,54643.00,55670.00,55933.00,56703.00,56705.00,56703.00,56708.00,56966.00,57485.00,58257.00,58752.00,58469.00,58707.00,59470.00,59214.00,59218.00,59477.00,59734.00,60244.00,60754.00,61265.00,61007.00,61260.00,61260.00,61775.00,62034.00,61782.00,61271.00,61273.00,61782.00,62297.00,62557.00,63068.00,63325.00,63071.00,63074.00,63335.00,63335.00,63847.00,64364.00,64364.00,64362.00,64612.00,64863.00,64865.00,64871.00,64364.00,63861.00,63864.00,63866.00,64121.00,64355.00,64604.00,64607.00,64596.00,64068.00,63041.00
19967.00,19199.00,18431.00,18431.00,18431.00,17918.00,16892.00,15868.00,16635.00,17915.00,19706.00,20472.00,20726.00,21237.00,21237.00,20984.00,21499.00,21498.00,21497.00,21753.00,22010.00,21755.00,21500.00,21757.00,20990.00,21502.00,22270.00,22014.00,22014.00,22527.00,22783.00,23295.00,23807.00,23295.00,22783.00,22783.00,23038.00,23550.00,24318.00,24829.00,24062.00,23807.00,23551.00,23550.00,23806.00,23805.00,23550.00,23805.00,23804.00,24061.00,23806.00,24318.00,25086.00,25853.00,26877.00,28157.00,29437.00,31230.00,32511.00,34303.00,36351.00,44031.00,49662.00,50427.00,49910.00,49143.00,50168.00,50678.00,50678.00,50936.00,51450.00,54013.00,55807.00,56575.00,57343.00,57599.00,57343.00,56831.00,56823.00,57296.00,57774.00,58335.00,59885.00,60658.00,60660.00,60918.00,58871.00,55536.00,53983.00,60381.00,64734.00,61620.00,57476.00,53664.00,52458.00,50669.00,52470.00,53758.00,53731.00,51851.00,47730.00,44712.00,45530.00,44778.00,44790.00,46334.00,48894.00,51964.00,53503.00,54015.00,52223.00,46591.00,38655.00,31487.00,25087.00,25343.00,32511.00,33791.00,35327.00,44799.00,51455.00,50943.00,47103.00,46591.00,48895.00,50943.00,52991.00,54221.00,54439.00,53927.00,53157.00,51364.00,51115.00,52907.00,54433.00,54938.00,53139.00,45444.00,39276.00,38761.00,40566.00,41848.00,40569.00,40315.00,39550.00,39806.00,40073.00,45708.00,46743.00,42140.00,49311.00,50344.00,46768.00,44979.00,41395.00,31921.00,25780.00,21950.00,18615.00,19871.00,26002.00,29840.00,29586.00,29342.00,29873.00,29629.00,29628.00,29356.00,28831.00,28804.00,28271.00,27757.00,28012.00,28270.00,28018.00,28016.00,27759.00,28783.00,28784.00,28784.00,28783.00,28013.00,27244.00,27501.00,27501.00,27756.00,27758.00,27755.00,27998.00,27988.00,27731.00,27988.00,28500.00,28243.00,27986.00,27734.00,27734.00,27992.00,27992.00,27992.00,27734.00,27723.00,27738.00,28009.00,28008.00,27497.00,27241.00,26982.00,27239.00,27494.00,27494.00,27750.00,28005.00,27750.00,27494.00,27237.00,26979.00,26980.00,26722.00,26722.00,26977.00,26976.00,27490.00,27746.00,27231.00,26975.00,26719.00,26975.00,26976.00,26976.00,26975.00,27230.00,26719.00,26975.00,27230.00,27484.00,27482.00,26971.00,26972.00,27484.00,26971.00,26460.00,26461.00,26971.00,26970.00,27227.00,26968.00,26967.00,27224.00,27480.00,27735.00,27735.00,27478.00,27222.00,27222.00,27223.00,27481.00,27222.00,27220.00,27477.00,27734.00,27734.00,27735.00,27734.00,27479.00,27223.00,27222.00,27478.00,27734.00,27733.00,27733.00,27988.00,27728.00,27984.00,28244.00,28244.00,28499.00,28242.00,28239.00,27984.00,28242.00,28753.00,28494.00,28239.00,28243.00,28512.00,28531.00,28792.00,29308.00,29310.00,29311.00,29309.00,29052.00,29305.00,29814.00,30072.00,29306.00,29313.00,29297.00,29536.00,29274.00,29518.00,29526.00,29014.00,28781.00,28796.00,28800.00,29059.00,29569.00,30337.00,31868.00,32886.00,33396.00,33395.00,33651.00,34164.00,34676.00,35184.00,35179.00,36716.00,38511.00,36461.00,29802.00,26985.00,22377.00,22634.00,24169.00,38503.00,44900.00,46178.00,45919.00,46176.00,46692.00,46440.00,46186.00,45677.00,45166.00,46187.00,45930.00,46187.00,46190.00,45938.00,46200.00,45694.00,46980.00,48259.00,48766.00,48492.00,48480.00,49505.00,50535.00,50800.00,50031.00,50029.00,49770.00,50025.00,49768.00,49510.00,51045.00,52328.00,54123.00,53360.00,51569.00,51058.00,51827.00,53115.00,53638.00,54149.00,53633.00,54396.00,53111.00,53619.00,55418.00,56449.00,57731.00,57732.00,58246.00,56709.00,55950.00,56976.00,58232.00,58718.00,58964.00,59220.00,59220.00,59478.00,59736.00,59735.00,59990.00,60241.00,60493.00,61006.00,61005.00,61261.00,61519.00,61522.00,61526.00,61785.00,62299.00,62558.00,62818.00,62818.00,63072.00,63324.00,63323.00,63324.00,63836.00,63838.00,63838.00,64094.00,64353.00,64609.00,64864.00,64863.00,64865.00,64869.00,64880.00,64626.00,64373.00,64373.00,64376.00,64378.00,64358.00,64608.00,64351.00,64855.00,64067.00,63041.00
18943.00,18431.00,18175.00,18687.00,18687.00,17918.00,17149.00,16125.00,17403.00,18683.00,19449.00,20215.00,20726.00,21494.00,21750.00,21242.00,21500.00,22012.00,22266.00,22777.00,23034.00,22523.00,21500.00,21503.00,20991.00,21502.00,22270.00,22270.00,22271.00,22783.00,22783.00,23039.00,23550.00,23038.00,22527.00,22527.00,23038.00,23550.00,24062.00,24317.00,24063.00,23551.00,23295.00,23295.00,23806.00,23806.00,23550.00,24060.00,24572.00,24573.00,24318.00,24830.00,25342.00,25854.00,26621.00,27389.00,27901.00,30206.00,31231.00,33279.00,36607.00,44543.00,49919.00,50942.00,49147.00,48376.00,49141.00,49906.00,50417.00,50421.00,51193.00,53246.00,55292.00,56831.00,57599.00,57087.00,56574.00,55551.00,55545.00,55977.00,56514.00,57321.00,59626.00,61168.00,61169.00,61434.00,59894.00,56558.00,53731.00,55518.00,60889.00,60350.00,55680.00,52635.00,55012.00,54247.00,53743.00,54006.00,55039.00,54749.00,50334.00,45446.00,44449.00,44493.00,44535.00,46591.00,50160.00,53231.00,54271.00,53759.00,52223.00,47103.00,39679.00,36095.00,32767.00,30463.00,38399.00,45309.00,44284.00,43517.00,49919.00,51711.00,46847.00,43775.00,45055.00,46847.00,48895.00,49876.00,50342.00,49832.00,49576.00,48040.00,47019.00,47776.00,49035.00,50047.00,49778.00,44652.00,38766.00,38005.00,39537.00,41587.00,40065.00,38539.00,34957.00,32654.00,29077.00,30099.00,34711.00,39067.00,49313.00,51628.00,47529.00,44207.00,41906.00,32953.00,26035.00,24211.00,26237.00,29317.00,28820.00,30117.00,29103.00,28843.00,29095.00,29358.00,29878.00,29355.00,28827.00,28540.00,28266.00,28009.00,28264.00,28524.00,28274.00,28272.00,28271.00,29038.00,29037.00,28526.00,28782.00,28013.00,27244.00,27499.00,27499.00,27755.00,27501.00,27499.00,27743.00,27731.00,27729.00,27987.00,27988.00,28242.00,28242.00,27987.00,27476.00,27480.00,27481.00,27740.00,27224.00,27468.00,27479.00,28008.00,28009.00,27494.00,27238.00,26984.00,27238.00,27239.00,27241.00,27240.00,27238.00,27238.00,27238.00,27237.00,27236.00,26979.00,26721.00,26721.00,26722.00,26977.00,27235.00,27490.00,27231.00,26975.00,26720.00,26720.00,26720.00,26977.00,26978.00,26978.00,26721.00,26975.00,27229.00,27739.00,27995.00,27740.00,27229.00,27485.00,27229.00,26718.00,26718.00,26712.00,26710.00,26969.00,27225.00,26970.00,26970.00,27225.00,27480.00,27735.00,27480.00,27480.00,27478.00,27479.00,27479.00,27222.00,26966.00,27223.00,27734.00,27734.00,27735.00,27734.00,27475.00,27477.00,27480.00,27482.00,27737.00,27734.00,27731.00,27986.00,27730.00,27732.00,27735.00,27990.00,28756.00,28754.00,28240.00,27985.00,28242.00,28498.00,28240.00,27985.00,28244.00,28253.00,28272.00,29048.00,29566.00,29312.00,29567.00,29565.00,29565.00,29817.00,30326.00,30072.00,29563.00,29313.00,29301.00,29537.00,29276.00,29520.00,29784.00,29266.00,28780.00,28796.00,29051.00,29307.00,29557.00,30326.00,32114.00,33136.00,33388.00,33648.00,33908.00,34421.00,34930.00,35434.00,35170.00,36706.00,38501.00,36709.00,30308.00,26725.00,22632.00,22378.00,23660.00,37230.00,44395.00,44649.00,44133.00,45411.00,46948.00,46950.00,46696.00,45933.00,45422.00,45937.00,45941.00,46198.00,46710.00,46713.00,46207.00,45444.00,46468.00,48258.00,48763.00,48237.00,48483.00,49249.00,49766.00,49519.00,50031.00,50541.00,50796.00,50797.00,49776.00,49266.00,51059.00,52597.00,52343.00,52855.00,51832.00,51323.00,52349.00,53381.00,53646.00,54157.00,54666.00,55172.00,54395.00,54901.00,55934.00,55943.00,56203.00,56204.00,58507.00,56462.00,55421.00,56674.00,57940.00,58706.00,58962.00,59222.00,59480.00,59736.00,59737.00,59736.00,59737.00,59989.00,60238.00,60749.00,60750.00,61006.00,61520.00,61523.00,61525.00,62040.00,62299.00,62558.00,62817.00,62818.00,63072.00,63326.00,63324.00,63580.00,64088.00,63829.00,63830.00,64088.00,64348.00,64609.00,64872.00,64877.00,64883.00,64888.00,64889.00,64633.00,64376.00,64375.00,64379.00,64383.00,64360.00,64607.00,64608.00,64859.00,64068.00,63298.00
18687.00,17919.00,18175.00,19199.00,19453.00,18428.00,17404.00,16125.00,17659.00,18682.00,19191.00,19701.00,19958.00,21238.00,22520.00,21243.00,21245.00,22013.00,22524.00,22779.00,23291.00,23036.00,21757.00,21247.00,20734.00,20734.00,21502.00,21503.00,21759.00,22014.00,21502.00,21246.00,20735.00,20735.00,20735.00,20991.00,20991.00,21503.00,21759.00,21759.00,22271.00,22527.00,22271.00,22015.00,22015.00,22526.00,23038.00,24060.00,25597.00,25341.00,25341.00,25342.00,25342.00,25855.00,26623.00,26622.00,26622.00,28671.00,29183.00,30975.00,34815.00,43007.00,48127.00,49919.00,47615.00,47356.00,47608.00,48629.00,49399.00,49399.00,50681.00,51453.00,52988.00,54527.00,55551.00,55807.00,55551.00,54783.00,54520.00,54944.00,55007.00,55540.00,58085.00,60391.00,61678.00,61686.00,60408.00,57332.00,54758.00,52699.00,55510.00,56765.00,54911.00,52376.00,57823.00,61159.00,56814.00,55033.00,55289.00,56052.00,52684.00,45966.00,43649.00,45215.00,45777.00,47615.00,50685.00,53991.00,54511.00,53759.00,52223.00,47871.00,38911.00,33535.00,33535.00,31999.00,36095.00,40959.00,42495.00,44031.00,46079.00,51199.00,47871.00,43007.00,41215.00,43263.00,47871.00,48859.00,48301.00,47782.00,48032.00,48029.00,46232.00,44679.00,44142.00,44389.00,45412.00,43364.00,37995.00,36720.00,36466.00,36731.00,33665.00,30082.00,25224.00,25741.00,27797.00,34716.00,43683.00,44712.00,46247.00,51372.00,46512.00,43697.00,43442.00,37794.00,34953.00,33414.00,31901.00,31670.00,30407.00,30161.00,29905.00,29899.00,29892.00,30399.00,30650.00,30371.00,29577.00,29037.00,28511.00,29282.00,29796.00,29801.00,29804.00,28779.00,28524.00,29293.00,28782.00,28270.00,28782.00,28783.00,28270.00,28269.00,27502.00,27755.00,27502.00,27502.00,27744.00,27731.00,27731.00,27989.00,27478.00,27732.00,27989.00,27990.00,27736.00,27482.00,27228.00,27230.00,27483.00,27480.00,27740.00,27748.00,27748.00,27234.00,26722.00,26728.00,26983.00,27242.00,27243.00,26987.00,26987.00,26985.00,26983.00,27237.00,27491.00,27234.00,26975.00,27232.00,27234.00,27235.00,27493.00,27236.00,27234.00,27234.00,27233.00,26977.00,26977.00,26978.00,26723.00,26723.00,26723.00,26976.00,26974.00,27485.00,27997.00,27996.00,27740.00,27740.00,27485.00,27228.00,26970.00,26710.00,26453.00,26712.00,27225.00,27227.00,26714.00,26968.00,27222.00,27223.00,27480.00,27480.00,27478.00,27220.00,27219.00,27221.00,27222.00,27479.00,27734.00,27477.00,27733.00,27732.00,27472.00,27476.00,27735.00,27736.00,27736.00,27733.00,27729.00,28239.00,27987.00,27990.00,27479.00,27733.00,28498.00,28752.00,28496.00,28497.00,28753.00,28752.00,28239.00,28239.00,28496.00,28246.00,28268.00,29051.00,29571.00,29572.00,29570.00,29824.00,29824.00,30076.00,29817.00,29821.00,29823.00,29572.00,29053.00,29029.00,29023.00,29268.00,29531.00,29264.00,28769.00,29039.00,28780.00,29036.00,29288.00,30058.00,31591.00,33127.00,33130.00,33384.00,33636.00,34399.00,34651.00,34906.00,34908.00,36445.00,38750.00,37982.00,32351.00,28001.00,24675.00,23910.00,24681.00,36971.00,44909.00,43887.00,42095.00,43630.00,45932.00,46186.00,45930.00,45675.00,45937.00,45689.00,46464.00,46720.00,46716.00,47229.00,46722.00,46212.00,46982.00,47997.00,48497.00,48488.00,48741.00,48997.00,48746.00,48245.00,47738.00,47477.00,48752.00,49521.00,48757.00,49020.00,50816.00,52352.00,52095.00,52348.00,52091.00,52862.00,54147.00,54669.00,55189.00,55700.00,55187.00,55181.00,54404.00,54654.00,55176.00,54927.00,54675.00,54927.00,57232.00,56688.00,56410.00,56657.00,57424.00,58452.00,59221.00,59218.00,59216.00,58963.00,58967.00,59224.00,59227.00,59479.00,59728.00,59983.00,59985.00,60498.00,61013.00,61524.00,62036.00,62292.00,62292.00,62805.00,63062.00,63063.00,63064.00,63580.00,63330.00,63853.00,64114.00,64111.00,64368.00,64366.00,64364.00,64368.00,64373.00,64633.00,64894.00,64896.00,64891.00,64891.00,64888.00,64634.00,64385.00,64132.00,63854.00,64094.00,64354.00,64350.00,63554.00,63551.00
18687.00,17919.00,18175.00,19455.00,19967.00,18943.00,17663.00,16126.00,16636.00,18170.00,19191.00,19701.00,19702.00,20983.00,23289.00,22013.00,22015.00,22015.00,22270.00,22525.00,23038.00,23038.00,22269.00,21246.00,20735.00,20734.00,21245.00,21246.00,21503.00,21758.00,21502.00,21503.00,20479.00,20735.00,20735.00,20991.00,21247.00,21503.00,21759.00,22015.00,22271.00,22527.00,22783.00,22271.00,22015.00,22270.00,23038.00,24317.00,25341.00,25085.00,25341.00,25086.00,24831.00,25599.00,26623.00,26623.00,26878.00,28927.00,29183.00,30719.00,34815.00,43007.00,48127.00,49663.00,46847.00,46845.00,46842.00,47607.00,47862.00,47858.00,49651.00,50167.00,51199.00,52735.00,53759.00,54527.00,54527.00,54271.00,53991.00,54184.00,53750.00,54263.00,56557.00,59622.00,61675.00,62194.00,60667.00,57853.00,55028.00,52702.00,53722.00,55226.00,54664.00,48530.00,50902.00,56555.00,56309.00,53247.00,52469.00,53995.00,51679.00,43959.00,40073.00,42883.00,46489.00,47830.00,50687.00,53757.00,54242.00,53489.00,52478.00,48383.00,41471.00,32253.00,32510.00,32511.00,34047.00,34559.00,34559.00,35583.00,38143.00,47615.00,48379.00,43512.00,38909.00,40191.00,46079.00,46815.00,45226.00,43937.00,44440.00,44944.00,42881.00,40553.00,39766.00,39511.00,41567.00,41063.00,36463.00,34934.00,34689.00,35206.00,33663.00,31617.00,31626.00,35217.00,38037.00,43423.00,55973.00,59052.00,51625.00,49580.00,45996.00,42926.00,40849.00,36475.00,37014.00,35758.00,32434.00,30658.00,30415.00,29644.00,30149.00,30408.00,30409.00,30657.00,30906.00,31138.00,30089.00,29039.00,29029.00,29801.00,29546.00,29549.00,29804.00,28523.00,28779.00,29039.00,28529.00,28273.00,29041.00,29297.00,28528.00,28015.00,27507.00,27757.00,27758.00,27502.00,27741.00,27730.00,27734.00,27993.00,27992.00,27993.00,27993.00,27739.00,27743.00,27742.00,27746.00,27743.00,28001.00,28010.00,28009.00,27749.00,27493.00,27238.00,26724.00,26725.00,26727.00,26985.00,27242.00,27242.00,27243.00,27242.00,26982.00,26725.00,27491.00,27234.00,27231.00,27232.00,27234.00,27235.00,27237.00,27237.00,26978.00,27233.00,27232.00,27232.00,26977.00,26977.00,26720.00,26718.00,26717.00,26972.00,26972.00,26972.00,27484.00,27739.00,27483.00,27484.00,27484.00,27225.00,27224.00,26968.00,26458.00,26970.00,27481.00,27226.00,26713.00,26967.00,26965.00,26966.00,27223.00,27223.00,27222.00,26964.00,26708.00,26965.00,27221.00,27476.00,27733.00,27477.00,27733.00,27733.00,27477.00,27478.00,27478.00,27734.00,27735.00,27733.00,27730.00,27984.00,28244.00,27990.00,27476.00,27476.00,28242.00,28497.00,28242.00,28753.00,28755.00,28496.00,28494.00,28496.00,28751.00,28501.00,28525.00,29309.00,29316.00,29828.00,29570.00,29569.00,29823.00,29821.00,30074.00,30333.00,29825.00,29828.00,29570.00,29288.00,29279.00,29524.00,29531.00,29260.00,29023.00,29296.00,28525.00,28526.00,29034.00,29801.00,30816.00,32607.00,33111.00,33367.00,33624.00,34138.00,34652.00,34654.00,34654.00,36443.00,38749.00,37980.00,32604.00,27485.00,24413.00,22878.00,22624.00,33890.00,44899.00,43624.00,41837.00,43377.00,45937.00,46192.00,45938.00,46450.00,46458.00,45954.00,46985.00,46725.00,45695.00,46463.00,46980.00,46980.00,48001.00,47477.00,47209.00,47464.00,47980.00,48240.00,48504.00,48258.00,47486.00,46199.00,47729.00,49009.00,48246.00,49023.00,50309.00,51589.00,52868.00,52097.00,51838.00,52860.00,53634.00,53646.00,54423.00,55191.00,55189.00,53907.00,52624.00,52879.00,54166.00,55188.00,55693.00,56956.00,56419.00,57946.00,58202.00,57432.00,57429.00,58452.00,59217.00,59218.00,58707.00,58710.00,58971.00,59483.00,59481.00,59733.00,59728.00,59728.00,60240.00,61008.00,61012.00,61524.00,62293.00,62295.00,62294.00,62807.00,63063.00,63063.00,63063.00,63578.00,63329.00,63858.00,64126.00,64126.00,64384.00,64383.00,64379.00,64380.00,64381.00,64636.00,64894.00,64892.00,64891.00,64891.00,64887.00,64635.00,64385.00,64132.00,63855.00,64092.00,64356.00,63838.00,63550.00,63804.00
17663.00,19199.00,19967.00,20991.00,20223.00,18431.00,18175.00,16383.00,17403.00,18682.00,18936.00,19959.00,20469.00,20468.00,21750.00,22520.00,21494.00,21495.00,21497.00,22782.00,22783.00,22526.00,23039.00,22271.00,21503.00,21247.00,20479.00,20223.00,20991.00,22015.00,22527.00,22015.00,21503.00,20991.00,20479.00,20991.00,21503.00,22271.00,22783.00,23295.00,22783.00,23551.00,23807.00,23551.00,23550.00,23806.00,24318.00,25087.00,25087.00,24831.00,24574.00,24575.00,24574.00,25598.00,26879.00,27647.00,27647.00,28671.00,27391.00,31486.00,34046.00,43007.00,49407.00,49919.00,47865.00,45047.00,46067.00,46068.00,46329.00,46842.00,47868.00,49403.00,50684.00,50431.00,50943.00,52223.00,52223.00,51967.00,52162.00,51900.00,52475.00,52470.00,54510.00,57315.00,59365.00,60915.00,60414.00,58623.00,55549.00,53993.00,51930.00,52919.00,57230.00,55683.00,52947.00,50670.00,49653.00,51445.00,51953.00,52203.00,51182.00,46562.00,42670.00,42869.00,45697.00,48537.00,50407.00,52991.00,53745.00,52701.00,52458.00,48895.00,43775.00,39167.00,34554.00,33791.00,34046.00,35070.00,35839.00,35839.00,35071.00,40703.00,48382.00,45564.00,38906.00,38911.00,40959.00,41956.00,43430.00,40599.00,40084.00,40831.00,40291.00,38999.00,38227.00,37979.00,39776.00,41069.00,36726.00,31356.00,31108.00,36998.00,39816.00,39310.00,38290.00,38297.00,38556.00,39575.00,50592.00,59049.00,54188.00,47275.00,42148.00,36996.00,35703.00,32151.00,32431.00,33712.00,31176.00,30673.00,31443.00,30923.00,30923.00,30411.00,30147.00,30392.00,30638.00,30614.00,30583.00,30315.00,29801.00,29550.00,29550.00,29549.00,29292.00,29038.00,29040.00,29296.00,29296.00,29297.00,29552.00,29296.00,28784.00,28782.00,28782.00,28525.00,28525.00,28776.00,29020.00,28501.00,28504.00,28509.00,28509.00,28251.00,27995.00,27230.00,26979.00,27495.00,28011.00,27756.00,27759.00,27502.00,27245.00,27243.00,27497.00,27753.00,27499.00,27498.00,26983.00,27239.00,27493.00,27492.00,27493.00,27493.00,27492.00,27491.00,27745.00,27489.00,27236.00,27235.00,27232.00,27231.00,27741.00,27232.00,27232.00,27235.00,27230.00,26973.00,26463.00,26461.00,26717.00,26717.00,26462.00,26972.00,26972.00,26971.00,27226.00,26971.00,26715.00,26205.00,26717.00,26973.00,26970.00,26712.00,26714.00,26970.00,26970.00,26715.00,26713.00,26712.00,26966.00,27478.00,27221.00,26710.00,26710.00,27221.00,27731.00,27476.00,27219.00,27729.00,27987.00,27731.00,28243.00,28245.00,27476.00,27732.00,27732.00,27732.00,27732.00,27988.00,28245.00,28501.00,28239.00,27728.00,27477.00,27224.00,27220.00,27732.00,28242.00,28750.00,29007.00,28753.00,28499.00,28500.00,28755.00,29268.00,29788.00,29556.00,28542.00,28797.00,29308.00,29306.00,29561.00,29818.00,29818.00,29823.00,29824.00,29829.00,29827.00,29797.00,29536.00,29522.00,29272.00,29530.00,29278.00,29285.00,29283.00,28763.00,28246.00,29527.00,31320.00,32601.00,33371.00,34142.00,33888.00,33631.00,34142.00,34398.00,34398.00,36955.00,38490.00,38748.00,30813.00,26464.00,24416.00,24160.00,25188.00,33127.00,43884.00,43885.00,41584.00,44402.00,46453.00,45686.00,46453.00,46457.00,46718.00,46726.00,46473.00,46724.00,46458.00,46717.00,47745.00,47749.00,47491.00,47985.00,47976.00,47978.00,47989.00,47746.00,47751.00,48268.00,49272.00,49012.00,49780.00,50297.00,50815.00,51079.00,50060.00,51341.00,50571.00,50310.00,52612.00,51328.00,48756.00,50567.00,52882.00,54166.00,54427.00,54167.00,53394.00,53136.00,53643.00,54660.00,55154.00,55894.00,56403.00,56404.00,56659.00,56913.00,56911.00,57165.00,57676.00,57676.00,58191.00,58192.00,58449.00,58962.00,59218.00,59472.00,59471.00,59473.00,59985.00,60240.00,60754.00,60756.00,61269.00,61527.00,61528.00,61528.00,62040.00,62038.00,62293.00,62554.00,63072.00,63342.00,63355.00,63866.00,63870.00,63867.00,63865.00,64122.00,64377.00,64634.00,64891.00,64891.00,64896.00,64383.00,63869.00,63610.00,63353.00,63873.00,64363.00,64602.00,64862.00,64596.00,64819.00,64050.00
17919.00,19967.00,20735.00,20991.00,19199.00,15359.00,14591.00,15103.00,17147.00,18681.00,18935.00,19445.00,20212.00,20981.00,21750.00,22519.00,21493.00,21239.00,22009.00,23038.00,22271.00,22270.00,22783.00,22271.00,22015.00,21503.00,21247.00,21503.00,22271.00,22783.00,23551.00,23551.00,23039.00,21503.00,19967.00,19967.00,20991.00,22271.00,23295.00,23551.00,23295.00,23551.00,23807.00,23551.00,23295.00,23550.00,24319.00,24575.00,24831.00,24575.00,24062.00,23806.00,24318.00,25343.00,26111.00,26623.00,27134.00,27902.00,27902.00,30974.00,34046.00,43263.00,49663.00,49919.00,46588.00,44537.00,44790.00,45560.00,46588.00,46331.00,47614.00,48639.00,49405.00,49659.00,49912.00,50430.00,50943.00,50943.00,50611.00,49873.00,50685.00,51195.00,53236.00,55525.00,57572.00,59890.00,60926.00,60415.00,56316.00,55543.00,53981.00,50856.00,52377.00,56709.00,58059.00,51942.00,47348.00,48888.00,50937.00,51960.00,51451.00,48122.00,44501.00,42140.00,41342.00,45693.00,47518.00,49643.00,50933.00,50671.00,50398.00,47613.00,43775.00,41726.00,39165.00,38399.00,37887.00,37375.00,36607.00,37119.00,37887.00,36350.00,45310.00,49910.00,44790.00,39931.00,39675.00,42205.00,42922.00,40856.00,39303.00,38750.00,38740.00,39000.00,38735.00,39006.00,42595.00,44393.00,40565.00,32395.00,29087.00,36000.00,40347.00,40091.00,39067.00,38300.00,38310.00,39071.00,44967.00,55215.00,57511.00,47776.00,40330.00,37240.00,34716.00,31664.00,33205.00,33736.00,31950.00,30930.00,31439.00,31180.00,30924.00,30665.00,30142.00,30134.00,30126.00,30099.00,30579.00,30317.00,30059.00,29808.00,29553.00,29550.00,29293.00,29296.00,29039.00,29551.00,29551.00,29295.00,29295.00,29039.00,29038.00,29293.00,29039.00,28782.00,28525.00,28521.00,28513.00,28251.00,28252.00,28000.00,27488.00,27746.00,28007.00,27499.00,27244.00,27502.00,27761.00,27761.00,27503.00,27501.00,27244.00,26987.00,27242.00,27242.00,27497.00,27495.00,27493.00,27749.00,27748.00,27748.00,27492.00,27492.00,27492.00,27235.00,28001.00,27744.00,27745.00,27744.00,27487.00,27486.00,27740.00,27486.00,27484.00,27487.00,27229.00,26716.00,26717.00,26716.00,26716.00,26972.00,26462.00,26716.00,26973.00,26973.00,26973.00,26974.00,26718.00,26462.00,26461.00,26716.00,26713.00,26712.00,26969.00,27225.00,26968.00,26969.00,26711.00,27223.00,27478.00,27735.00,27735.00,27222.00,26966.00,27222.00,27730.00,27986.00,27730.00,28242.00,28243.00,27732.00,28244.00,28245.00,27478.00,27733.00,27732.00,27988.00,28245.00,28501.00,28246.00,27990.00,27984.00,27727.00,27474.00,27478.00,27732.00,27988.00,28497.00,29003.00,29261.00,28751.00,28243.00,28243.00,28753.00,29521.00,30041.00,29553.00,28801.00,29055.00,29054.00,29052.00,29051.00,29307.00,29819.00,30079.00,29822.00,29572.00,29573.00,29544.00,29793.00,29777.00,29781.00,29779.00,29524.00,29790.00,29533.00,28505.00,27992.00,29018.00,31069.00,32350.00,33119.00,33374.00,33374.00,33630.00,34143.00,34400.00,34399.00,36700.00,37984.00,38239.00,31326.00,26978.00,25190.00,24170.00,25711.00,32625.00,44659.00,44913.00,42609.00,44145.00,44915.00,44665.00,46204.00,47486.00,46723.00,46731.00,46220.00,46462.00,46965.00,46974.00,47235.00,47237.00,47485.00,48244.00,49014.00,49018.00,48768.00,47759.00,47247.00,47747.00,49015.00,49277.00,50559.00,51326.00,51583.00,50819.00,49799.00,51339.00,51592.00,51340.00,52108.00,52362.00,50559.00,51848.00,54925.00,54928.00,52617.00,54147.00,54910.00,54907.00,54649.00,54645.00,54887.00,55634.00,56147.00,56402.00,56401.00,56656.00,56911.00,56910.00,57165.00,57932.00,57676.00,57933.00,58447.00,58706.00,58962.00,59217.00,58960.00,59217.00,59729.00,60241.00,60754.00,61010.00,61267.00,61267.00,61268.00,61781.00,61783.00,62037.00,62293.00,62810.00,63072.00,63342.00,63355.00,63611.00,63871.00,63868.00,63866.00,64121.00,64375.00,64633.00,64889.00,64891.00,64893.00,64381.00,63868.00,63610.00,63354.00,63873.00,64365.00,64604.00,64349.00,64596.00,64820.00,64046.00
19455.00,21503.00,22015.00,21247.00,18431.00,13311.00,11774.00,14590.00,17403.00,18681.00,18678.00,18420.00,19445.00,20469.00,20471.00,21751.00,21237.00,20727.00,22009.00,22781.00,22015.00,22270.00,22527.00,21759.00,21503.00,21247.00,21503.00,22527.00,23295.00,23295.00,23807.00,24063.00,23039.00,21759.00,20223.00,20223.00,20991.00,22015.00,22527.00,22527.00,22783.00,23295.00,23551.00,23807.00,23551.00,23551.00,23807.00,24319.00,24319.00,24574.00,23806.00,23807.00,24831.00,25855.00,26111.00,25855.00,26878.00,26878.00,27902.00,29183.00,31999.00,40447.00,47615.00,48639.00,45049.00,42488.00,41463.00,42234.00,43515.00,43001.00,44543.00,45823.00,47359.00,47866.00,48123.00,48893.00,50175.00,50424.00,50095.00,49631.00,49917.00,50173.00,51957.00,53989.00,56034.00,59121.00,61692.00,62203.00,59903.00,55293.00,52958.00,51105.00,49571.00,50824.00,52935.00,50146.00,43757.00,44015.00,46582.00,48893.00,49406.00,49663.00,47859.00,43722.00,41344.00,45695.00,47492.00,48294.00,50163.00,50682.00,50153.00,47855.00,45311.00,44030.00,42239.00,40959.00,40191.00,38911.00,37119.00,37119.00,37631.00,36863.00,38143.00,46073.00,48639.00,43005.00,40699.00,41960.00,43686.00,42117.00,40044.00,38489.00,39510.00,41046.00,41306.00,41825.00,44397.00,45951.00,44178.00,35995.00,29599.00,34208.00,39588.00,39594.00,37805.00,37549.00,37551.00,37804.00,37553.00,45992.00,53405.00,43651.00,35204.00,32942.00,29359.00,29619.00,33227.00,32977.00,32458.00,31690.00,31436.00,31693.00,31182.00,30917.00,30903.00,30382.00,29859.00,29829.00,30060.00,30314.00,30312.00,29805.00,29295.00,29291.00,29290.00,29037.00,28522.00,29035.00,29547.00,29547.00,29036.00,29036.00,29291.00,29035.00,28779.00,28268.00,27756.00,27497.00,27492.00,27744.00,28257.00,28003.00,27236.00,27493.00,27496.00,27753.00,27751.00,27496.00,27499.00,28011.00,27758.00,28013.00,28012.00,27755.00,27754.00,27753.00,27752.00,28005.00,28007.00,27751.00,27750.00,27748.00,27746.00,27490.00,27235.00,26978.00,27233.00,27232.00,27488.00,27230.00,27228.00,27228.00,27484.00,27229.00,27486.00,27743.00,27231.00,26974.00,26974.00,27230.00,26973.00,27231.00,26714.00,26712.00,26715.00,26972.00,26971.00,26717.00,26716.00,26715.00,26713.00,26714.00,26714.00,26970.00,26970.00,27226.00,27480.00,27225.00,27480.00,27736.00,27735.00,27734.00,27734.00,27476.00,27219.00,27733.00,27990.00,28246.00,28246.00,28246.00,28246.00,27733.00,27989.00,27732.00,27732.00,27732.00,27733.00,27990.00,28246.00,28503.00,28247.00,27735.00,27476.00,27471.00,27982.00,28241.00,28753.00,29009.00,29007.00,29003.00,28750.00,28242.00,27732.00,27732.00,28754.00,29265.00,29527.00,29037.00,28281.00,28280.00,28025.00,28280.00,28536.00,28792.00,29047.00,29816.00,29561.00,29310.00,28799.00,29028.00,29532.00,29774.00,29779.00,30037.00,29785.00,30053.00,29795.00,29025.00,28513.00,29281.00,30820.00,31846.00,32872.00,32871.00,33127.00,33384.00,33641.00,34154.00,34409.00,36963.00,38748.00,39264.00,33379.00,28518.00,26469.00,24167.00,26732.00,32364.00,44137.00,45929.00,44907.00,44904.00,43878.00,44143.00,45434.00,46719.00,45184.00,46203.00,46455.00,47722.00,49008.00,48514.00,48007.00,48005.00,47999.00,48760.00,48764.00,49032.00,48531.00,47502.00,47228.00,48242.00,48248.00,48515.00,49541.00,50817.00,51331.00,50053.00,49798.00,51080.00,53642.00,53651.00,52879.00,53130.00,50815.00,50810.00,54897.00,54383.00,52077.00,53611.00,54892.00,55151.00,54643.00,54640.00,54882.00,54868.00,55377.00,55631.00,55628.00,55884.00,56652.00,55885.00,55117.00,56140.00,56652.00,57418.00,57676.00,57422.00,57678.00,58190.00,58703.00,59215.00,59470.00,59728.00,59983.00,60494.00,60750.00,60749.00,60749.00,61519.00,61778.00,61522.00,61269.00,61786.00,62048.00,62319.00,62841.00,63096.00,63867.00,64378.00,64888.00,64885.00,64883.00,64886.00,64889.00,65146.00,65402.00,65146.00,64889.00,64632.00,64376.00,64637.00,64878.00,65116.00,64859.00,64854.00,64570.00,64044.00
19199.00,20991.00,20735.00,18943.00,16127.00,11519.00,11005.00,15101.00,18684.00,18427.00,19193.00,19703.00,20215.00,20727.00,20472.00,21496.00,21751.00,20984.00,22008.00,22524.00,22015.00,22527.00,22271.00,22015.00,21503.00,21503.00,22015.00,22783.00,23295.00,23807.00,23807.00,23295.00,22527.00,22271.00,21759.00,21759.00,21759.00,21759.00,21758.00,21758.00,22527.00,23039.00,23295.00,23551.00,23295.00,23551.00,24063.00,24831.00,24319.00,24575.00,24062.00,24063.00,24575.00,25599.00,25855.00,25599.00,26623.00,26367.00,27903.00,29183.00,31231.00,37887.00,47615.00,49151.00,45820.00,41468.00,40186.00,40186.00,41211.00,41721.00,43007.00,44543.00,45311.00,45823.00,46079.00,47615.00,49151.00,49644.00,50344.00,50915.00,51455.00,51966.00,53238.00,55016.00,56551.00,59123.00,61434.00,62199.00,61694.00,57085.00,53736.00,52399.00,53412.00,52606.00,51379.00,48100.00,43751.00,42206.00,43243.00,45051.00,46074.00,48123.00,48380.00,44786.00,42932.00,45958.00,48268.00,50059.00,52167.00,52985.00,52219.00,49894.00,47599.00,45821.00,43775.00,41983.00,41471.00,40447.00,37887.00,37375.00,36093.00,35839.00,32254.00,39412.00,49402.00,50679.00,49658.00,48107.00,48528.00,48492.00,48472.00,46678.00,45908.00,46418.00,46694.00,46960.00,46982.00,47767.00,48293.00,42662.00,32158.00,30100.00,37012.00,39836.00,37035.00,37803.00,37546.00,38323.00,36778.00,40605.00,48256.00,43130.00,34216.00,30130.00,28587.00,31682.00,34765.00,32455.00,31434.00,31432.00,31180.00,31437.00,30920.00,30913.00,30903.00,30380.00,30366.00,30079.00,30059.00,30058.00,30054.00,29804.00,29551.00,29548.00,29547.00,29035.00,29034.00,29290.00,29546.00,29546.00,29548.00,29292.00,29292.00,28781.00,28527.00,28273.00,27762.00,27503.00,27500.00,27755.00,28268.00,28014.00,27498.00,27240.00,27238.00,27750.00,28007.00,27754.00,27500.00,27757.00,28013.00,28012.00,27756.00,27755.00,27753.00,27752.00,28008.00,27751.00,27750.00,27494.00,27494.00,28004.00,28003.00,27747.00,27236.00,26980.00,26977.00,26977.00,27234.00,26975.00,26973.00,27485.00,27740.00,27486.00,27230.00,27485.00,27230.00,27229.00,27485.00,27485.00,27482.00,27228.00,27228.00,27227.00,27229.00,27228.00,26972.00,26461.00,26460.00,26459.00,26714.00,26717.00,26718.00,26718.00,26715.00,26713.00,26968.00,26969.00,27222.00,27478.00,27478.00,27478.00,27478.00,27733.00,27477.00,27734.00,28246.00,28502.00,27991.00,27991.00,27991.00,27735.00,27735.00,26966.00,27221.00,27478.00,27734.00,27734.00,27733.00,27987.00,28242.00,27986.00,27476.00,27728.00,27984.00,28242.00,28497.00,28753.00,28753.00,28495.00,28498.00,28244.00,27989.00,27988.00,28243.00,29011.00,29272.00,29036.00,28277.00,28277.00,28279.00,28536.00,28793.00,28794.00,29049.00,29562.00,29305.00,29309.00,29311.00,29542.00,29530.00,29518.00,29780.00,30036.00,29786.00,30055.00,29540.00,29026.00,29281.00,29793.00,30819.00,31843.00,32614.00,32869.00,33382.00,33383.00,33126.00,33638.00,34151.00,36964.00,39011.00,39784.00,34667.00,28781.00,27245.00,23660.00,26734.00,31085.00,44141.00,46186.00,44909.00,45169.00,45431.00,46461.00,45691.00,45174.00,44648.00,45660.00,45660.00,46686.00,47472.00,46724.00,46728.00,47496.00,47491.00,47746.00,47495.00,47501.00,47244.00,46201.00,46441.00,48239.00,48763.00,47751.00,46731.00,48263.00,49799.00,49800.00,50569.00,52364.00,52104.00,52868.00,52845.00,53341.00,50775.00,50265.00,54108.00,54626.00,53097.00,52841.00,53103.00,53363.00,53106.00,54122.00,54618.00,53839.00,54609.00,54608.00,54862.00,55885.00,56396.00,55372.00,54348.00,54860.00,56141.00,57164.00,57677.00,57422.00,57422.00,57934.00,58702.00,59469.00,59471.00,59472.00,59729.00,60240.00,60751.00,60751.00,60750.00,61264.00,61523.00,61523.00,61271.00,61787.00,61792.00,62319.00,62840.00,63352.00,63866.00,64377.00,64887.00,64885.00,64883.00,64886.00,64890.00,65146.00,65404.00,65146.00,64889.00,64632.00,64376.00,64637.00,64881.00,65117.00,65369.00,64857.00,64321.00,64046.00
19455.00,20991.00,20223.00,16639.00,13055.00,10751.00,12286.00,16381.00,19453.00,17917.00,19452.00,20985.00,20727.00,20215.00,19703.00,20983.00,22265.00,21751.00,22518.00,22266.00,22015.00,22271.00,22015.00,22271.00,22527.00,22783.00,22782.00,22783.00,23295.00,24063.00,24319.00,23295.00,22783.00,23039.00,23295.00,23039.00,22783.00,22527.00,22271.00,22783.00,22783.00,23551.00,23551.00,23295.00,23807.00,24319.00,24831.00,25599.00,25855.00,25599.00,25087.00,25343.00,25855.00,27135.00,27903.00,27391.00,27647.00,27391.00,27903.00,29439.00,29951.00,34559.00,46079.00,48127.00,44799.00,38143.00,37885.00,37112.00,36601.00,37369.00,37119.00,38399.00,38911.00,39935.00,41721.00,44799.00,46591.00,47575.00,49823.00,51431.00,52732.00,53497.00,55283.00,57069.00,58350.00,60146.00,61939.00,62195.00,60667.00,58622.00,54256.00,50622.00,51365.00,51838.00,50079.00,46048.00,43243.00,42204.00,43497.00,46332.00,48126.00,49914.00,50171.00,47359.00,44521.00,44964.00,48002.00,51082.00,52373.00,53194.00,52726.00,52218.00,50915.00,48876.00,47615.00,45823.00,45055.00,43775.00,41215.00,39167.00,36607.00,34559.00,31224.00,31721.00,42220.00,51192.00,49662.00,48591.00,50290.00,49254.00,49499.00,48975.00,48471.00,48995.00,49009.00,49286.00,50588.00,50079.00,50330.00,47762.00,36753.00,29593.00,34982.00,37297.00,36272.00,36273.00,35762.00,37553.00,38567.00,38269.00,41325.00,40326.00,34469.00,27824.00,27066.00,30664.00,32198.00,30151.00,29129.00,30416.00,29905.00,29647.00,29637.00,29628.00,29620.00,29602.00,29837.00,29562.00,29295.00,29038.00,29036.00,29038.00,29038.00,28524.00,28269.00,28265.00,28265.00,28266.00,28267.00,28524.00,28780.00,28268.00,27499.00,27243.00,27242.00,27500.00,26988.00,26986.00,26728.00,26728.00,26986.00,27241.00,27495.00,27238.00,27492.00,27748.00,27752.00,27755.00,27499.00,27498.00,27753.00,27752.00,27752.00,27751.00,27751.00,27494.00,27492.00,27494.00,27493.00,27494.00,27750.00,28262.00,28261.00,28004.00,27492.00,27235.00,26724.00,26979.00,26980.00,26722.00,26720.00,27234.00,27490.00,27746.00,27231.00,26976.00,26976.00,27230.00,27487.00,27486.00,27481.00,27228.00,27743.00,27487.00,27230.00,27229.00,26973.00,26461.00,26458.00,26972.00,27484.00,27228.00,27227.00,27227.00,26970.00,26713.00,26969.00,27226.00,27222.00,27478.00,27735.00,27993.00,27993.00,27992.00,27735.00,27223.00,27478.00,27735.00,27223.00,26968.00,26968.00,26968.00,26967.00,26711.00,26455.00,26711.00,26967.00,27222.00,27221.00,27220.00,27220.00,27220.00,27475.00,27473.00,27475.00,27220.00,27475.00,27475.00,27731.00,27729.00,27730.00,27730.00,27729.00,27729.00,27730.00,27988.00,28249.00,28527.00,28798.00,28795.00,28537.00,28792.00,29047.00,29304.00,29558.00,29815.00,29561.00,29819.00,30077.00,30052.00,29781.00,29771.00,29776.00,30287.00,30292.00,30561.00,30303.00,30046.00,30302.00,31327.00,32611.00,33636.00,34151.00,34405.00,34405.00,34406.00,34407.00,34407.00,34667.00,37227.00,39024.00,40051.00,35702.00,29053.00,27780.00,23427.00,26239.00,29562.00,41591.00,45429.00,44918.00,44922.00,44157.00,45179.00,44403.00,44658.00,44918.00,45678.00,45422.00,45423.00,44918.00,44161.00,45958.00,48266.00,47240.00,47751.00,47493.00,47738.00,47986.00,47478.00,47738.00,48765.00,47739.00,46716.00,46203.00,48508.00,50814.00,50303.00,50044.00,51319.00,49523.00,50035.00,51558.00,52575.00,51038.00,50786.00,52069.00,52839.00,52583.00,51818.00,52082.00,52081.00,51562.00,52833.00,53846.00,53074.00,54097.00,53585.00,54864.00,56144.00,56143.00,55372.00,54858.00,55114.00,56395.00,56652.00,57165.00,57422.00,57422.00,58189.00,58956.00,58956.00,59469.00,59214.00,59215.00,59728.00,59983.00,60240.00,60497.00,60753.00,60754.00,61010.00,61270.00,61528.00,61788.00,62058.00,62579.00,62837.00,63096.00,63351.00,63861.00,64116.00,64371.00,64372.00,64374.00,64375.00,64378.00,64376.00,64375.00,64119.00,63863.00,63867.00,63857.00,64088.00,64341.00,64344.00,64581.00,63791.00
19710.00,20734.00,19199.00,15103.00,11519.00,11263.00,15103.00,18687.00,19710.00,17661.00,19452.00,22010.00,21241.00,20216.00,19958.00,20726.00,21753.00,21751.00,22262.00,22268.00,22015.00,22015.00,22015.00,22271.00,22271.00,23039.00,23038.00,22783.00,23039.00,24063.00,24319.00,23295.00,22783.00,22783.00,22783.00,22783.00,22527.00,22783.00,22527.00,22783.00,23039.00,23551.00,23039.00,22527.00,23551.00,24575.00,24575.00,25087.00,25855.00,25343.00,25087.00,25343.00,25855.00,26879.00,27391.00,26623.00,27134.00,27135.00,27135.00,28927.00,29439.00,33535.00,45311.00,48639.00,46335.00,38143.00,37375.00,36346.00,35322.00,35321.00,34557.00,35326.00,36863.00,38399.00,41211.00,44543.00,46590.00,47820.00,50344.00,52202.00,52476.00,53496.00,55540.00,57841.00,58863.00,59883.00,60905.00,61167.00,62197.00,58105.00,53236.00,49860.00,50331.00,51584.00,50593.00,46558.00,44001.00,42967.00,43489.00,45809.00,48120.00,49910.00,50674.00,49659.00,47096.00,45255.00,48011.00,51084.00,51597.00,52125.00,51672.00,52223.00,51435.00,49886.00,48123.00,46079.00,45055.00,45564.00,45818.00,45310.00,42495.00,38911.00,35577.00,32999.00,38114.00,46843.00,49393.00,50330.00,50279.00,49760.00,51276.00,51784.00,51295.00,51831.00,52098.00,52365.00,51610.00,51618.00,51619.00,49567.00,40865.00,32681.00,35760.00,37814.00,37041.00,36020.00,36015.00,37022.00,38536.00,38510.00,38274.00,36507.00,30640.00,28089.00,31423.00,33227.00,32203.00,31179.00,29645.00,29899.00,30160.00,29902.00,29636.00,29628.00,29621.00,29597.00,29829.00,29561.00,29040.00,29038.00,29037.00,29038.00,28780.00,28267.00,28011.00,28008.00,27755.00,28011.00,28269.00,28270.00,28525.00,28012.00,27499.00,27498.00,27754.00,27755.00,27499.00,27497.00,27241.00,27241.00,27241.00,27494.00,27748.00,27493.00,27748.00,27749.00,27496.00,27497.00,27753.00,27754.00,27755.00,28010.00,28264.00,28262.00,27751.00,27494.00,27491.00,27494.00,27752.00,27751.00,28263.00,28518.00,28260.00,28003.00,27746.00,27234.00,26980.00,26978.00,26722.00,26721.00,26721.00,26980.00,27235.00,27490.00,26976.00,26722.00,26721.00,26975.00,26977.00,27232.00,27484.00,27230.00,27485.00,27485.00,27229.00,26971.00,26715.00,26715.00,26713.00,27227.00,27226.00,27224.00,27223.00,27225.00,27226.00,26971.00,27226.00,27737.00,27736.00,27479.00,27736.00,27993.00,27993.00,27993.00,27736.00,26967.00,26967.00,27224.00,27224.00,26968.00,26968.00,26711.00,27221.00,27221.00,26709.00,26708.00,26964.00,26965.00,27222.00,27223.00,27223.00,27222.00,27477.00,27731.00,27731.00,27476.00,27474.00,27731.00,27987.00,27985.00,27731.00,27473.00,27472.00,27472.00,27731.00,27989.00,27993.00,28272.00,28799.00,28539.00,28538.00,28792.00,29303.00,29302.00,29299.00,29556.00,29303.00,29562.00,29820.00,30053.00,30038.00,30285.00,30031.00,30032.00,30036.00,30307.00,30307.00,30304.00,30559.00,31071.00,32608.00,34402.00,34662.00,34659.00,34403.00,34405.00,34660.00,34658.00,34656.00,37212.00,39262.00,40037.00,36457.00,29037.00,27503.00,23406.00,25713.00,28277.00,40314.00,45439.00,44676.00,44933.00,43907.00,44924.00,44152.00,44926.00,45449.00,46475.00,46468.00,46466.00,45695.00,44927.00,46714.00,49528.00,46197.00,46708.00,46193.00,45929.00,46953.00,47475.00,47732.00,48496.00,47981.00,47470.00,47215.00,48750.00,50283.00,49768.00,49508.00,51296.00,50273.00,49508.00,50788.00,51298.00,50786.00,50787.00,49765.00,49767.00,51563.00,52079.00,52849.00,52330.00,51295.00,52053.00,53584.00,54097.00,54609.00,54096.00,54863.00,55888.00,55632.00,55374.00,56139.00,56907.00,57163.00,56910.00,56910.00,57422.00,57423.00,58190.00,58701.00,58445.00,58958.00,58958.00,59215.00,59472.00,59727.00,59728.00,60241.00,60496.00,60754.00,61010.00,61269.00,61529.00,61788.00,62313.00,62579.00,63094.00,63096.00,63351.00,63861.00,64117.00,64371.00,64372.00,64373.00,64374.00,64376.00,64376.00,64375.00,64118.00,63862.00,63865.00,63859.00,64086.00,64084.00,64341.00,64326.00,63794.00
20478.00,20478.00,18175.00,14591.00,11774.00,13055.00,18175.00,20991.00,19451.00,18426.00,19447.00,21750.00,21237.00,20213.00,20213.00,20213.00,21495.00,21749.00,22005.00,22523.00,22271.00,22271.00,22271.00,21759.00,21503.00,21759.00,22015.00,22271.00,22783.00,23295.00,23295.00,23551.00,24063.00,24319.00,24575.00,24575.00,24575.00,24319.00,24062.00,23806.00,23807.00,24319.00,24319.00,23807.00,24575.00,25854.00,26111.00,25343.00,25599.00,25599.00,25599.00,26111.00,26623.00,27135.00,27391.00,26879.00,27646.00,27391.00,26879.00,27903.00,29439.00,34815.00,44031.00,48127.00,46591.00,37887.00,34046.00,33019.00,31737.00,30711.00,30712.00,30713.00,33534.00,36607.00,39423.00,42495.00,45816.00,47814.00,50096.00,50662.00,50682.00,51189.00,53490.00,56305.00,57834.00,58593.00,59360.00,59369.00,58869.00,55796.00,51185.00,47047.00,47522.00,49553.00,50099.00,48089.00,45271.00,44247.00,44254.00,45804.00,47607.00,49147.00,50171.00,49404.00,44792.00,41441.00,42660.00,45437.00,46989.00,48272.00,47776.00,49126.00,48632.00,49637.00,50162.00,50943.00,52223.00,55031.00,57847.00,59390.00,56318.00,47359.00,41460.00,39648.00,37331.00,39134.00,45759.00,49261.00,49759.00,50518.00,51786.00,51800.00,52580.00,53633.00,53920.00,53929.00,52653.00,52391.00,53159.00,50862.00,46513.00,40109.00,39087.00,40889.00,41911.00,41913.00,42154.00,40333.00,40042.00,39565.00,37023.00,31150.00,25273.00,26818.00,30925.00,30154.00,27594.00,28108.00,28875.00,28874.00,28619.00,28873.00,28866.00,28855.00,28842.00,28302.00,28019.00,28012.00,28010.00,28012.00,28016.00,27758.00,27499.00,27496.00,26981.00,27496.00,27758.00,28015.00,28272.00,28016.00,27502.00,27500.00,27498.00,27498.00,28011.00,27757.00,27501.00,27500.00,27500.00,27243.00,26983.00,27237.00,26978.00,27237.00,27239.00,26984.00,26986.00,27242.00,27244.00,27245.00,26986.00,26984.00,27238.00,27237.00,26725.00,26725.00,26725.00,26727.00,26982.00,27236.00,27234.00,27234.00,27235.00,27235.00,27237.00,27238.00,27236.00,26976.00,26718.00,26718.00,26976.00,26977.00,26975.00,27742.00,27484.00,27230.00,26971.00,26714.00,26716.00,26716.00,27227.00,27484.00,27483.00,27228.00,26716.00,26459.00,26459.00,26716.00,26970.00,26973.00,26717.00,26715.00,26716.00,27228.00,27483.00,27739.00,27737.00,27990.00,28247.00,28248.00,28247.00,28246.00,27991.00,28249.00,28250.00,27993.00,27219.00,27732.00,27478.00,27735.00,27735.00,27478.00,27989.00,27988.00,27732.00,27731.00,27731.00,27731.00,27731.00,27986.00,27730.00,27728.00,27986.00,27984.00,27984.00,27728.00,27729.00,27987.00,28244.00,28496.00,28497.00,28238.00,28237.00,28494.00,29009.00,29011.00,28760.00,29034.00,28784.00,28526.00,28270.00,28269.00,28266.00,28523.00,29034.00,29037.00,28270.00,28279.00,28537.00,28776.00,29022.00,29267.00,29265.00,29271.00,29020.00,29291.00,29037.00,29288.00,29285.00,29796.00,31331.00,33379.00,33636.00,33632.00,34139.00,34394.00,34647.00,34645.00,34897.00,36682.00,38477.00,38989.00,35919.00,28250.00,26214.00,22893.00,24941.00,26731.00,36968.00,43625.00,43372.00,44658.00,42875.00,42881.00,42880.00,45439.00,46725.00,47496.00,46708.00,46714.00,46977.00,45447.00,44936.00,46222.00,45191.00,46718.00,46455.00,45677.00,46179.00,46429.00,46175.00,46952.00,45934.00,46451.00,47221.00,47732.00,48500.00,48238.00,47718.00,49506.00,49503.00,48734.00,48991.00,49246.00,48991.00,48735.00,48226.00,47974.00,50026.00,52332.00,52838.00,51547.00,51027.00,51789.00,53324.00,54864.00,54864.00,54864.00,55377.00,55889.00,55888.00,55885.00,56396.00,56908.00,57167.00,56656.00,56400.00,56911.00,57424.00,57680.00,57937.00,58194.00,58707.00,58706.00,58962.00,58962.00,58963.00,59220.00,59477.00,59219.00,59474.00,59988.00,60501.00,60761.00,61276.00,61542.00,61554.00,61558.00,61560.00,61815.00,62070.00,62326.00,62580.00,62835.00,63089.00,63348.00,63351.00,63351.00,63350.00,63349.00,63093.00,63350.00,63345.00,63572.00,63816.00,64071.00,63551.00,63284.00
19967.00,19199.00,16383.00,14078.00,12541.00,14590.00,19967.00,22015.00,19451.00,19194.00,19704.00,21239.00,21237.00,20213.00,20213.00,19959.00,21497.00,21749.00,22005.00,22780.00,22783.00,22527.00,22783.00,21503.00,22271.00,21503.00,21247.00,22527.00,23295.00,23295.00,23295.00,23807.00,24063.00,24831.00,25343.00,25087.00,24831.00,24319.00,24063.00,24063.00,23551.00,24319.00,24575.00,23807.00,24319.00,25855.00,26367.00,25599.00,25599.00,25855.00,25855.00,26111.00,26367.00,26623.00,26879.00,26879.00,27135.00,26879.00,26879.00,27135.00,29951.00,37119.00,43775.00,48127.00,47359.00,38655.00,31999.00,30718.00,29949.00,28152.00,29431.00,29432.00,31229.00,35579.00,38396.00,41215.00,45051.00,47549.00,49063.00,48359.00,47868.00,47864.00,49655.00,52468.00,54506.00,55262.00,55518.00,55015.00,54514.00,52472.00,46834.00,42952.00,46257.00,48280.00,48309.00,48339.00,46289.00,45273.00,45277.00,46570.00,47604.00,49656.00,50687.00,49406.00,47353.00,38898.00,32208.00,28811.00,30341.00,34437.00,37538.00,42168.00,45807.00,49644.00,52960.00,56059.00,57855.00,57839.00,56821.00,56060.00,51199.00,45567.00,43246.00,41435.00,39884.00,38593.00,39318.00,44397.00,49497.00,52043.00,53840.00,53094.00,53103.00,53907.00,54177.00,54429.00,54691.00,54434.00,55721.00,52149.00,48822.00,42160.00,38065.00,40634.00,41653.00,42163.00,41369.00,39030.00,38526.00,35224.00,31148.00,26288.00,28857.00,30148.00,31178.00,29640.00,27593.00,27330.00,28614.00,29127.00,28872.00,29123.00,29119.00,28850.00,29092.00,28554.00,27758.00,28006.00,27751.00,27499.00,27503.00,27757.00,27757.00,27754.00,27236.00,27498.00,28269.00,28015.00,28529.00,28272.00,27248.00,27244.00,27498.00,27243.00,27496.00,26988.00,26733.00,26732.00,26733.00,26987.00,26726.00,26980.00,26724.00,27492.00,27238.00,27239.00,27495.00,27751.00,27240.00,27240.00,27240.00,26984.00,26983.00,27239.00,26982.00,26982.00,26725.00,26471.00,26981.00,26979.00,26977.00,26721.00,26722.00,27235.00,27237.00,26982.00,26983.00,26979.00,26720.00,26974.00,27232.00,27233.00,26975.00,27741.00,27996.00,27742.00,26972.00,26715.00,26716.00,26715.00,26973.00,27740.00,27481.00,27481.00,26714.00,26458.00,26458.00,26970.00,27224.00,27226.00,26715.00,26715.00,26717.00,27229.00,27738.00,27993.00,27737.00,27736.00,27737.00,27995.00,27993.00,28247.00,28503.00,28505.00,28250.00,28249.00,27733.00,27733.00,27479.00,27737.00,27991.00,27734.00,27989.00,27474.00,27478.00,27733.00,27988.00,28243.00,28241.00,27984.00,27729.00,27473.00,27986.00,27984.00,27983.00,27984.00,27729.00,27988.00,27988.00,28240.00,28496.00,28238.00,28237.00,28751.00,29264.00,29008.00,29268.00,29544.00,29294.00,28779.00,28266.00,28261.00,28254.00,28507.00,29273.00,29531.00,28258.00,28527.00,28788.00,29030.00,29025.00,29268.00,29518.00,29526.00,29785.00,29290.00,28785.00,28781.00,29035.00,29291.00,31082.00,33642.00,33383.00,33634.00,34396.00,34907.00,34650.00,34908.00,35168.00,36957.00,38494.00,39006.00,36447.00,28772.00,26470.00,23397.00,24676.00,25698.00,36199.00,42598.00,42086.00,44389.00,43367.00,43110.00,42844.00,44624.00,46691.00,46962.00,45410.00,46197.00,47480.00,46185.00,44122.00,43871.00,43105.00,45653.00,46434.00,45674.00,45658.00,45393.00,45138.00,45393.00,45406.00,45933.00,47218.00,47216.00,47729.00,47724.00,47203.00,49251.00,48480.00,48731.00,48989.00,49756.00,48736.00,48225.00,48995.00,48488.00,49261.00,52076.00,51806.00,50514.00,51534.00,52301.00,53070.00,54865.00,54865.00,55377.00,55889.00,56145.00,56656.00,55885.00,55116.00,55118.00,56656.00,56656.00,56656.00,57167.00,57423.00,57425.00,57682.00,58450.00,58964.00,58963.00,58706.00,58961.00,58963.00,59476.00,59733.00,58964.00,59219.00,59989.00,60501.00,61018.00,61275.00,61540.00,61554.00,61302.00,61560.00,61814.00,62069.00,62325.00,62580.00,62834.00,63089.00,63348.00,63351.00,63351.00,63351.00,63350.00,63094.00,63350.00,63345.00,63569.00,63798.00,64056.00,63290.00,63031.00
17150.00,15614.00,14078.00,13822.00,14334.00,17405.00,21500.00,21243.00,19450.00,19192.00,19447.00,21750.00,21749.00,20470.00,20727.00,20467.00,20722.00,20722.00,20723.00,21241.00,21503.00,22271.00,23039.00,23037.00,23039.00,22271.00,20991.00,21759.00,23551.00,24063.00,23807.00,24063.00,23295.00,24063.00,24575.00,24062.00,23294.00,23294.00,23039.00,23551.00,23039.00,23551.00,23551.00,23551.00,23807.00,24574.00,25340.00,25598.00,25599.00,25599.00,25599.00,25343.00,25343.00,25855.00,26367.00,26367.00,26623.00,27391.00,26879.00,27135.00,28158.00,38143.00,42495.00,48383.00,49919.00,44031.00,32510.00,31228.00,29944.00,28918.00,30456.00,30713.00,32511.00,36351.00,39935.00,42495.00,44542.00,44986.00,45223.00,44259.00,42491.00,41974.00,44027.00,47093.00,48617.00,46043.00,42722.00,43236.00,43501.00,42992.00,41199.00,40390.00,44490.00,48024.00,47292.00,47055.00,47061.00,46285.00,45786.00,46565.00,47345.00,48111.00,48629.00,47862.00,45811.00,41199.00,37605.00,36790.00,38011.00,41356.00,44436.00,44961.00,46779.00,48365.00,49890.00,51433.00,50940.00,49654.00,49398.00,48123.00,46846.00,45309.00,42984.00,40899.00,39869.00,39053.00,38507.00,37983.00,40269.00,44878.00,49760.00,52091.00,52877.00,53913.00,55444.00,56208.00,57499.00,60320.00,64434.00,59580.00,50365.00,45499.00,40641.00,42172.00,43699.00,42403.00,40582.00,38769.00,34436.00,28575.00,23475.00,24250.00,27847.00,28869.00,26820.00,27586.00,27581.00,28096.00,27069.00,28602.00,29118.00,29114.00,28599.00,28078.00,27812.00,28044.00,28020.00,28016.00,27764.00,28017.00,28272.00,28787.00,28530.00,28526.00,28525.00,28014.00,27498.00,27756.00,27758.00,27758.00,27759.00,27501.00,27499.00,27242.00,27244.00,26987.00,26475.00,26474.00,26471.00,26982.00,27494.00,27749.00,27492.00,27493.00,27495.00,27750.00,27747.00,27748.00,27494.00,27238.00,27752.00,27751.00,27750.00,27750.00,27494.00,26982.00,26726.00,26981.00,26723.00,26722.00,26722.00,26723.00,26978.00,26977.00,27233.00,27489.00,26721.00,27234.00,27491.00,27491.00,27490.00,27489.00,27486.00,27484.00,27998.00,27229.00,27229.00,27484.00,27227.00,27228.00,27486.00,27487.00,27739.00,27735.00,27225.00,27227.00,27483.00,27482.00,27224.00,27479.00,27477.00,27482.00,27997.00,28251.00,28249.00,28246.00,28501.00,28247.00,27738.00,27225.00,27481.00,27739.00,27995.00,28250.00,28248.00,27993.00,27224.00,26969.00,26970.00,27227.00,27993.00,28247.00,28246.00,27733.00,27989.00,27732.00,27987.00,28500.00,28244.00,27987.00,27733.00,27222.00,26965.00,27222.00,27734.00,27988.00,27988.00,27987.00,27729.00,27727.00,27472.00,27473.00,27986.00,28498.00,28496.00,28751.00,29013.00,28768.00,29026.00,28514.00,28262.00,28513.00,28765.00,29276.00,29527.00,29268.00,29020.00,28774.00,28527.00,28519.00,28507.00,28497.00,28490.00,29265.00,29267.00,29035.00,28788.00,29293.00,29549.00,29797.00,30820.00,32356.00,33637.00,34147.00,34658.00,34916.00,35431.00,35694.00,35697.00,35695.00,35695.00,37743.00,36974.00,29551.00,26994.00,24176.00,24679.00,24672.00,36196.00,41825.00,42852.00,44392.00,43878.00,45158.00,46177.00,46172.00,44893.00,45918.00,46177.00,45162.00,45421.00,46697.00,46430.00,45130.00,44356.00,41817.00,45177.00,45439.00,44924.00,46699.00,45402.00,45392.00,45397.00,46183.00,46955.00,47720.00,47720.00,47976.00,48487.00,48226.00,48988.00,50267.00,49244.00,46688.00,48736.00,50014.00,50281.00,50026.00,51308.00,53866.00,53084.00,51794.00,52818.00,52305.00,51792.00,53839.00,54095.00,54351.00,55632.00,56145.00,56145.00,55376.00,54352.00,54865.00,56657.00,57168.00,57421.00,56653.00,56143.00,56913.00,58195.00,58452.00,58196.00,58451.00,58705.00,58962.00,58963.00,58963.00,58964.00,58712.00,59737.00,59989.00,60753.00,61270.00,61274.00,61024.00,61287.00,61550.00,62066.00,62325.00,62584.00,62836.00,62832.00,62833.00,63090.00,62325.00,61558.00,62070.00,62842.00,63100.00,63094.00,62582.00,62061.00,61776.00,61496.00,62267.00,63544.00,62771.00
14846.00,14078.00,13055.00,13567.00,14078.00,17405.00,21757.00,21756.00,20475.00,19961.00,19960.00,21494.00,21493.00,20470.00,20470.00,20469.00,20724.00,20724.00,20725.00,20730.00,20991.00,21759.00,23039.00,23039.00,23551.00,22527.00,21503.00,22271.00,23551.00,24063.00,23551.00,23295.00,23039.00,23551.00,23807.00,23294.00,22527.00,22527.00,22527.00,23039.00,23039.00,23295.00,23551.00,23551.00,23807.00,24318.00,24572.00,24574.00,24319.00,24575.00,24575.00,25087.00,25087.00,25599.00,25855.00,25855.00,26111.00,25599.00,26879.00,26367.00,26111.00,36095.00,42495.00,48383.00,51967.00,48127.00,34815.00,31231.00,30973.00,30202.00,29432.00,30197.00,31998.00,34815.00,37887.00,39423.00,40447.00,40125.00,40103.00,39908.00,39420.00,36604.00,35839.00,37116.00,37870.00,37855.00,38366.00,39901.00,41698.00,42737.00,42228.00,42180.00,44743.00,46491.00,46265.00,47810.00,47836.00,47569.00,47317.00,48089.00,48621.00,49145.00,48891.00,47605.00,47090.00,44791.00,44791.00,46810.00,48538.00,51332.00,53902.00,53653.00,52888.00,52685.00,51696.00,51158.00,50165.00,49146.00,49146.00,48890.00,48635.00,46847.00,44761.00,43190.00,41895.00,41333.00,40793.00,39764.00,39248.00,38486.00,40557.00,45192.00,49553.00,52368.00,54158.00,55445.00,57757.00,63144.00,65458.00,61879.00,51132.00,46776.00,42685.00,40635.00,39591.00,37749.00,34158.00,29834.00,23202.00,18352.00,20925.00,26299.00,27834.00,28085.00,26802.00,28077.00,28080.00,27578.00,27574.00,28598.00,28595.00,28597.00,28339.00,28070.00,28567.00,28548.00,28281.00,28271.00,28264.00,28271.00,28270.00,28523.00,28784.00,28785.00,28525.00,28268.00,27757.00,27756.00,28012.00,27757.00,27759.00,27501.00,27243.00,27244.00,27501.00,27243.00,26987.00,26730.00,26728.00,26728.00,27240.00,27750.00,27490.00,27492.00,27750.00,27750.00,27236.00,27238.00,27495.00,27239.00,27495.00,27749.00,28005.00,28005.00,27748.00,27493.00,26982.00,27237.00,26979.00,26978.00,26722.00,26722.00,26722.00,26976.00,26976.00,27231.00,26974.00,26976.00,27233.00,27234.00,27490.00,27744.00,27742.00,27740.00,27741.00,27742.00,27487.00,27486.00,27228.00,27228.00,27229.00,27487.00,27483.00,27479.00,27481.00,27226.00,27482.00,27483.00,27481.00,27735.00,27478.00,27480.00,27995.00,28253.00,27997.00,27995.00,28248.00,28246.00,27735.00,27479.00,27480.00,27482.00,27738.00,27737.00,27991.00,27735.00,27482.00,27226.00,26970.00,26970.00,27482.00,28249.00,28247.00,27990.00,27988.00,27988.00,28499.00,28500.00,28242.00,27986.00,27733.00,27221.00,27221.00,27477.00,27734.00,27990.00,27987.00,27986.00,27729.00,27727.00,28242.00,28242.00,28241.00,28242.00,28242.00,28497.00,28758.00,28509.00,28761.00,28499.00,27988.00,28247.00,28504.00,29014.00,29266.00,29262.00,29265.00,29015.00,28773.00,28517.00,28252.00,28242.00,28490.00,29262.00,29521.00,29030.00,28789.00,29292.00,29543.00,29798.00,30821.00,32356.00,33382.00,33894.00,34663.00,34919.00,35176.00,35435.00,35437.00,35693.00,35185.00,37491.00,37236.00,29812.00,27766.00,24694.00,23921.00,23403.00,35436.00,42089.00,43115.00,43886.00,43631.00,44915.00,44662.00,43896.00,45431.00,46457.00,46454.00,45424.00,45423.00,45939.00,45685.00,45164.00,43869.00,41049.00,43608.00,45142.00,45671.00,46713.00,45177.00,45931.00,46436.00,46437.00,46432.00,46939.00,46937.00,47447.00,48473.00,48220.00,48731.00,48477.00,48480.00,48481.00,48481.00,47968.00,48234.00,49006.00,50802.00,53348.00,54102.00,53073.00,53330.00,52817.00,51280.00,51537.00,52047.00,52815.00,54864.00,56144.00,56400.00,55631.00,54351.00,54608.00,55888.00,56143.00,56142.00,55886.00,56143.00,56914.00,57941.00,58454.00,57941.00,57939.00,57937.00,58193.00,58962.00,59219.00,58964.00,59222.00,59992.00,60244.00,60496.00,61013.00,61530.00,61280.00,61287.00,61550.00,62065.00,62324.00,62840.00,62836.00,62832.00,62832.00,63089.00,62324.00,61559.00,62071.00,62585.00,62841.00,62838.00,62582.00,62065.00,61779.00,62020.00,62785.00,62779.00,63032.00
13565.00,13821.00,13823.00,14335.00,14847.00,17918.00,22269.00,22012.00,20218.00,19962.00,19960.00,20214.00,20470.00,20469.00,20213.00,20471.00,20726.00,20469.00,20726.00,20988.00,21247.00,21759.00,22527.00,23295.00,24063.00,23551.00,23039.00,23295.00,23807.00,24063.00,24062.00,23551.00,23807.00,23807.00,24063.00,23807.00,23039.00,22527.00,22015.00,22271.00,22271.00,22527.00,22270.00,22525.00,22781.00,23037.00,23037.00,23037.00,23293.00,23293.00,23294.00,23807.00,23807.00,24063.00,24063.00,24318.00,24062.00,23551.00,25087.00,25855.00,25087.00,31999.00,41983.00,48639.00,52735.00,50175.00,39935.00,31743.00,31230.00,29946.00,31221.00,31731.00,31998.00,33023.00,34815.00,35839.00,36863.00,38084.00,39592.00,39651.00,36347.00,35327.00,33023.00,33535.00,36336.00,36323.00,35549.00,36313.00,40669.00,44770.00,46569.00,46796.00,47049.00,46479.00,46250.00,47551.00,48352.00,48599.00,48348.00,48600.00,49378.00,49909.00,49405.00,47346.00,45545.00,44542.00,46335.00,48875.00,50612.00,52343.00,54142.00,53901.00,53392.00,53157.00,52199.00,51668.00,51160.00,49909.00,49398.00,49391.00,49149.00,48118.00,47042.00,45738.00,44166.00,43361.00,42326.00,40522.00,40784.00,41310.00,41075.00,40325.00,41349.00,45956.00,50059.00,51353.00,52907.00,57015.00,61116.00,56764.00,50877.00,49086.00,46022.00,39351.00,35713.00,31078.00,25464.00,21658.00,17581.00,14258.00,20401.00,26796.00,28325.00,28582.00,27819.00,28861.00,28600.00,27547.00,28817.00,28815.00,28814.00,28813.00,28551.00,28555.00,28816.00,28796.00,28790.00,28790.00,28276.00,28526.00,28270.00,28272.00,28783.00,28530.00,28532.00,28528.00,28526.00,28267.00,28522.00,28524.00,28524.00,28009.00,27752.00,27754.00,28010.00,27754.00,27754.00,27751.00,27749.00,27492.00,27491.00,27233.00,27490.00,27235.00,27748.00,27748.00,27235.00,26979.00,27236.00,27234.00,27746.00,28001.00,28002.00,28001.00,27999.00,28000.00,28003.00,27747.00,27747.00,27491.00,27491.00,27235.00,27490.00,27489.00,27743.00,27742.00,27485.00,27485.00,27486.00,27487.00,27488.00,27487.00,27742.00,27997.00,27998.00,28255.00,27999.00,27742.00,27740.00,27483.00,27229.00,27230.00,27227.00,27480.00,27482.00,27481.00,27735.00,27993.00,28248.00,28247.00,27993.00,27991.00,27993.00,27996.00,27742.00,27740.00,27993.00,27990.00,27738.00,27738.00,27738.00,27482.00,27226.00,27225.00,27481.00,27224.00,27222.00,27224.00,26968.00,27481.00,27994.00,28250.00,28247.00,28247.00,27733.00,27988.00,28245.00,28246.00,27988.00,27732.00,27734.00,27475.00,27472.00,27473.00,27733.00,27735.00,27989.00,28243.00,28242.00,27985.00,29008.00,28750.00,28494.00,28241.00,27985.00,27985.00,28243.00,28509.00,28763.00,28758.00,28501.00,28506.00,28766.00,29022.00,29021.00,29273.00,29011.00,29265.00,29537.00,29288.00,28770.00,28502.00,28494.00,28752.00,29011.00,28252.00,28269.00,28782.00,29030.00,29031.00,30305.00,31841.00,32869.00,33127.00,33639.00,34150.00,34916.00,34657.00,34911.00,35428.00,34921.00,36972.00,36973.00,30061.00,28015.00,25203.00,23407.00,22633.00,33895.00,42093.00,42609.00,42865.00,42868.00,43900.00,43395.00,43142.00,44681.00,45704.00,45702.00,44674.00,44669.00,44924.00,45186.00,46215.00,45699.00,43633.00,44655.00,45424.00,45928.00,45668.00,44653.00,46188.00,46950.00,46437.00,46432.00,46677.00,46415.00,46930.00,48213.00,48213.00,49495.00,47707.00,47710.00,49244.00,48477.00,47964.00,47973.00,47983.00,49783.00,52317.00,53840.00,53328.00,53070.00,53580.00,53068.00,52302.00,52816.00,53327.00,54862.00,55885.00,56140.00,55371.00,54602.00,54861.00,55117.00,55372.00,55373.00,55374.00,56141.00,56656.00,56914.00,57940.00,56916.00,57427.00,57425.00,57682.00,58451.00,58450.00,58193.00,58962.00,59222.00,59220.00,58961.00,59221.00,59738.00,59744.00,59750.00,60012.00,60529.00,60533.00,61050.00,61044.00,60783.00,61038.00,61038.00,61040.00,61042.00,61300.00,61303.00,61557.00,61815.00,61813.00,61555.00,61526.00,61257.00,62019.00,60989.00,61758.00
14844.00,15357.00,15359.00,15103.00,15103.00,17663.00,21758.00,22013.00,20474.00,19962.00,19960.00,19704.00,19959.00,20726.00,20726.00,20728.00,20471.00,20470.00,20471.00,20989.00,21503.00,22015.00,22527.00,23039.00,23551.00,23551.00,23551.00,23295.00,23295.00,23551.00,23806.00,23807.00,23807.00,23807.00,24063.00,23807.00,23295.00,22527.00,21759.00,21759.00,21503.00,22271.00,22270.00,22526.00,22782.00,23549.00,23805.00,24317.00,24572.00,24061.00,23805.00,24062.00,24063.00,23807.00,23551.00,23806.00,24061.00,24062.00,23551.00,25343.00,24831.00,27135.00,39423.00,48639.00,53247.00,51967.00,45823.00,31487.00,29439.00,27388.00,28920.00,29173.00,30713.00,31229.00,32509.00,33023.00,33279.00,34255.00,35753.00,37087.00,38133.00,35583.00,31999.00,31230.00,33520.00,36839.00,38367.00,37336.00,43222.00,49626.00,53214.00,52431.00,50889.00,49291.00,48807.00,48834.00,48862.00,49113.00,49120.00,49372.00,49881.00,50666.00,50429.00,48115.00,46569.00,45554.00,46847.00,48876.00,50117.00,51843.00,53631.00,53895.00,53128.00,52624.00,52426.00,51683.00,51134.00,50158.00,49404.00,49919.00,48895.00,48625.00,47790.00,46487.00,45169.00,44124.00,43093.00,41802.00,41554.00,41570.00,43125.00,45446.00,45448.00,43659.00,43417.00,44459.00,47285.00,48314.00,50879.00,50876.00,50357.00,49342.00,46531.00,37276.00,28012.00,21355.00,16265.00,14498.00,15270.00,13988.00,19104.00,26016.00,27809.00,28838.00,28077.00,28307.00,28024.00,26747.00,28800.00,28530.00,28771.00,28770.00,28512.00,28521.00,28281.00,28271.00,28524.00,28785.00,28016.00,28269.00,28520.00,28517.00,28522.00,28271.00,28268.00,28520.00,28522.00,28266.00,28267.00,28523.00,28521.00,28264.00,28010.00,28013.00,27755.00,27755.00,27754.00,28007.00,28006.00,27749.00,27491.00,26977.00,27234.00,27236.00,27237.00,27236.00,27235.00,27236.00,27237.00,27236.00,27747.00,28001.00,28001.00,28000.00,28000.00,28001.00,28003.00,27748.00,27748.00,27748.00,27492.00,27491.00,27747.00,27746.00,28001.00,27999.00,27487.00,27486.00,27486.00,27232.00,26976.00,26975.00,27230.00,27742.00,27998.00,27998.00,27741.00,27229.00,27484.00,27485.00,27229.00,26972.00,27226.00,27481.00,27739.00,27737.00,27992.00,27993.00,28248.00,28248.00,27994.00,27992.00,27993.00,27739.00,27740.00,27739.00,27736.00,27735.00,27737.00,27994.00,27994.00,27481.00,27224.00,27480.00,27480.00,27223.00,26962.00,26966.00,27224.00,27480.00,27992.00,27992.00,27991.00,27991.00,27477.00,27477.00,27476.00,27477.00,27478.00,27735.00,27736.00,27731.00,27728.00,27729.00,27732.00,27734.00,27989.00,28244.00,28244.00,28243.00,28752.00,28752.00,28497.00,28243.00,27730.00,27728.00,27982.00,28501.00,28758.00,28762.00,28508.00,28252.00,28766.00,28768.00,28770.00,28765.00,28753.00,29003.00,29531.00,29545.00,29287.00,28763.00,28498.00,28244.00,28755.00,28238.00,28252.00,28784.00,28781.00,28778.00,30050.00,32356.00,33125.00,33382.00,33637.00,34404.00,34913.00,34654.00,34653.00,35170.00,35175.00,36969.00,37482.00,30573.00,27506.00,25202.00,23146.00,22883.00,32614.00,41844.00,43128.00,43124.00,42873.00,43651.00,43912.00,44681.00,44171.00,45198.00,45199.00,44681.00,44934.00,44168.00,43400.00,44424.00,45452.00,45452.00,45959.00,45702.00,45450.00,46218.00,46215.00,46464.00,46201.00,46442.00,46428.00,46671.00,46413.00,46423.00,47708.00,48219.00,49242.00,48475.00,48221.00,47963.00,45406.00,47454.00,49254.00,49524.00,49014.00,51546.00,53329.00,52306.00,51534.00,52557.00,53580.00,53070.00,53073.00,53072.00,54351.00,55117.00,55372.00,55115.00,54859.00,55886.00,55375.00,55630.00,55375.00,55375.00,56142.00,55888.00,56402.00,57428.00,56659.00,57427.00,57939.00,57939.00,58451.00,57938.00,57682.00,58707.00,58966.00,58965.00,58963.00,59222.00,59226.00,59487.00,59493.00,60012.00,60019.00,60279.00,60539.00,60790.00,60785.00,61040.00,61040.00,61298.00,61297.00,61300.00,61303.00,61557.00,61560.00,61813.00,61558.00,61529.00,60743.00,61764.00,61247.00,61503.00
16637.00,16894.00,16895.00,16639.00,15871.00,17151.00,21246.00,21758.00,21498.00,20473.00,20730.00,20730.00,20472.00,21494.00,21751.00,21239.00,20473.00,20983.00,21495.00,22526.00,23295.00,23551.00,23295.00,23551.00,24063.00,24575.00,24575.00,24063.00,24063.00,24319.00,24063.00,24319.00,24319.00,24063.00,24575.00,24319.00,23807.00,23038.00,22015.00,22015.00,21758.00,22014.00,22014.00,22270.00,22526.00,23294.00,23805.00,24317.00,23548.00,23549.00,23551.00,23551.00,23295.00,22527.00,21759.00,21758.00,22526.00,22783.00,21759.00,22271.00,23039.00,22271.00,31999.00,47359.00,55039.00,55039.00,50687.00,36095.00,28927.00,27903.00,26365.00,26365.00,26110.00,26879.00,28415.00,29183.00,29183.00,31195.00,34223.00,36065.00,36088.00,34047.00,30463.00,29439.00,32503.00,39920.00,46311.00,46554.00,45010.00,50130.00,52943.00,52168.00,49607.00,47504.00,47274.00,47814.00,49103.00,49630.00,50405.00,50659.00,50648.00,51162.00,50933.00,48895.00,46585.00,46311.00,47346.00,48866.00,50128.00,51869.00,53632.00,54406.00,54145.00,53908.00,54191.00,53730.00,52424.00,51426.00,50425.00,50431.00,49916.00,49893.00,49054.00,47747.00,46953.00,46434.00,45650.00,44878.00,44117.00,44386.00,44917.00,45960.00,48010.00,49294.00,49053.00,48049.00,48569.00,47035.00,46270.00,44987.00,44212.00,44219.00,44457.00,38255.00,25689.00,18294.00,13973.00,11674.00,13462.00,12184.00,15768.00,26009.00,28058.00,29593.00,28022.00,27225.00,27737.00,27474.00,29521.00,28747.00,28750.00,28488.00,28492.00,28493.00,28241.00,27995.00,28276.00,28549.00,28287.00,28277.00,28778.00,28774.00,28519.00,28268.00,28271.00,28528.00,29042.00,28788.00,29044.00,29041.00,29039.00,28782.00,28525.00,28522.00,28521.00,28266.00,28265.00,28264.00,28263.00,28262.00,28003.00,28004.00,28517.00,28007.00,27239.00,27494.00,28005.00,28260.00,28259.00,28515.00,28515.00,28514.00,28257.00,28257.00,28259.00,28517.00,28517.00,28006.00,28005.00,27750.00,27750.00,27748.00,27747.00,28003.00,28003.00,28258.00,27490.00,27488.00,27231.00,27232.00,27231.00,27230.00,27742.00,27743.00,27486.00,27485.00,27485.00,27230.00,26975.00,27486.00,27483.00,27226.00,27481.00,27482.00,27739.00,27737.00,27738.00,27739.00,27736.00,27736.00,27993.00,27993.00,27993.00,27993.00,27994.00,27993.00,27992.00,27737.00,27735.00,27992.00,27993.00,27736.00,27479.00,27480.00,27481.00,27477.00,27474.00,27731.00,27731.00,27731.00,27730.00,27731.00,27988.00,28500.00,28242.00,27986.00,27470.00,27470.00,27729.00,27986.00,28243.00,28245.00,28249.00,28248.00,28248.00,28249.00,28251.00,28762.00,29017.00,29017.00,29529.00,29274.00,29018.00,28506.00,28248.00,28245.00,28499.00,29014.00,29272.00,28763.00,28505.00,28501.00,28499.00,28757.00,28758.00,28503.00,28498.00,29006.00,29531.00,29548.00,29545.00,29021.00,28752.00,28496.00,28753.00,28234.00,27729.00,28267.00,28269.00,28520.00,30308.00,32360.00,33642.00,33642.00,33899.00,34154.00,34408.00,34404.00,34660.00,35174.00,35179.00,36971.00,37997.00,31604.00,27257.00,24947.00,23402.00,22888.00,30578.00,40569.00,42102.00,42613.00,42111.00,42888.00,44171.00,45709.00,46479.00,46223.00,45198.00,44426.00,44681.00,44171.00,43403.00,44426.00,44168.00,44681.00,45962.00,46735.00,45971.00,46741.00,47510.00,46481.00,46712.00,47707.00,47951.00,47955.00,47705.00,47196.00,47966.00,48734.00,48220.00,49241.00,49756.00,47965.00,43359.00,45151.00,48489.00,50550.00,49768.00,51284.00,51024.00,48464.00,47437.00,50254.00,53582.00,54863.00,53328.00,52560.00,52815.00,53839.00,54606.00,54861.00,55117.00,55628.00,55373.00,55374.00,54606.00,54606.00,55119.00,55375.00,55630.00,56912.00,56144.00,56913.00,57169.00,57936.00,58449.00,57936.00,57424.00,57940.00,58452.00,58197.00,58198.00,58203.00,58208.00,58977.00,59746.00,59752.00,59502.00,59763.00,60022.00,60019.00,60271.00,60783.00,61040.00,61042.00,60785.00,60530.00,60277.00,60276.00,60536.00,60789.00,61047.00,61018.00,60487.00,60744.00,60486.00,59971.00
17917.00,17662.00,17663.00,17407.00,16127.00,16638.00,20477.00,21757.00,20987.00,20218.00,20475.00,20475.00,19961.00,20983.00,21751.00,21239.00,20216.00,20728.00,21498.00,22527.00,23551.00,23807.00,23551.00,23807.00,24319.00,24575.00,24319.00,24063.00,24319.00,24575.00,24319.00,24575.00,24319.00,24319.00,24575.00,24575.00,24574.00,24062.00,22783.00,22783.00,22525.00,22269.00,22014.00,22270.00,22526.00,23038.00,23550.00,24061.00,23549.00,23806.00,23807.00,23551.00,23039.00,22527.00,22015.00,22527.00,22271.00,21759.00,22271.00,20735.00,22271.00,21503.00,25599.00,42239.00,55039.00,56063.00,54527.00,46079.00,29439.00,28415.00,27390.00,26362.00,26618.00,27643.00,28927.00,29695.00,29695.00,31462.00,34483.00,35806.00,35833.00,37119.00,36351.00,35327.00,37625.00,42997.00,48108.00,49629.00,47569.00,49600.00,52667.00,54466.00,52427.00,48788.00,47521.00,48842.00,50121.00,50657.00,51427.00,51681.00,50911.00,50903.00,50658.00,48630.00,46580.00,46557.00,47597.00,48612.00,49369.00,50613.00,52353.00,53651.00,53640.00,53646.00,53397.00,53185.00,52440.00,51910.00,51698.00,51454.00,50169.00,49622.00,48779.00,47976.00,47711.00,47453.00,46670.00,45911.00,45405.00,45680.00,45694.00,46466.00,47749.00,48791.00,49319.00,50097.00,50362.00,50108.00,48570.00,46263.00,44473.00,43190.00,41614.00,35931.00,27750.00,19845.00,15257.00,12189.00,13210.00,11419.00,13466.00,25240.00,27778.00,29285.00,27735.00,26703.00,27481.00,28256.00,29798.00,28778.00,28782.00,28524.00,28268.00,28259.00,28245.00,28496.00,28756.00,28765.00,28516.00,28252.00,28767.00,28774.00,28515.00,28769.00,28517.00,28263.00,29030.00,29286.00,29287.00,29031.00,29034.00,28781.00,28523.00,28260.00,28518.00,28520.00,28776.00,28519.00,28263.00,28005.00,28004.00,28005.00,28008.00,28007.00,27494.00,27492.00,28004.00,28002.00,28001.00,28513.00,28514.00,28515.00,28258.00,28002.00,28260.00,28261.00,28261.00,28008.00,28006.00,28006.00,27750.00,27748.00,27748.00,27747.00,27747.00,28003.00,27748.00,27489.00,27232.00,27231.00,27487.00,27742.00,27998.00,27998.00,27486.00,27486.00,27742.00,27487.00,27232.00,27231.00,27484.00,27483.00,27481.00,27481.00,27481.00,27736.00,27483.00,27485.00,27480.00,27736.00,27993.00,28249.00,27992.00,27991.00,28248.00,28248.00,27992.00,27994.00,27736.00,27993.00,27993.00,27737.00,27737.00,27739.00,27483.00,27224.00,27478.00,27732.00,27987.00,27988.00,27987.00,27732.00,27989.00,28500.00,28243.00,28245.00,27729.00,27472.00,27729.00,27985.00,28242.00,28502.00,28507.00,28505.00,28247.00,28247.00,28250.00,28506.00,29017.00,29272.00,29272.00,29273.00,29017.00,28505.00,28504.00,28503.00,28501.00,29017.00,29532.00,29019.00,28761.00,28762.00,28764.00,29020.00,29019.00,28511.00,28251.00,29015.00,29786.00,30061.00,29798.00,29279.00,29012.00,28755.00,28757.00,28245.00,27737.00,28007.00,28264.00,28773.00,30311.00,31850.00,33643.00,33899.00,33901.00,34156.00,34409.00,34662.00,34919.00,35178.00,34667.00,36717.00,38255.00,33651.00,28533.00,25198.00,22890.00,22127.00,28790.00,39795.00,40816.00,41847.00,41859.00,42376.00,43912.00,44940.00,44687.00,44685.00,44940.00,44941.00,45195.00,45193.00,44683.00,44686.00,44174.00,43403.00,44687.00,46738.00,46222.00,45976.00,46735.00,46448.00,46419.00,47435.00,47440.00,47451.00,47965.00,47451.00,47192.00,47447.00,48730.00,48985.00,50013.00,49502.00,46687.00,46177.00,47468.00,48498.00,49496.00,50766.00,50509.00,48718.00,48205.00,50000.00,52304.00,53583.00,53583.00,52559.00,52303.00,53071.00,53838.00,54350.00,54605.00,54860.00,54860.00,54861.00,54093.00,54350.00,55375.00,55887.00,55886.00,56400.00,55632.00,56144.00,56144.00,56913.00,58194.00,57939.00,57171.00,57429.00,58198.00,57942.00,57941.00,58204.00,58466.00,59234.00,59747.00,59496.00,59501.00,59762.00,60021.00,60018.00,60270.00,60528.00,60785.00,60786.00,60787.00,60530.00,60020.00,60022.00,60023.00,60533.00,60790.00,61020.00,60999.00,60743.00,60742.00,59969.00
19450.00,19196.00,19198.00,18687.00,16639.00,16381.00,19963.00,22266.00,20985.00,20985.00,21241.00,20985.00,20473.00,21240.00,21751.00,21240.00,20471.00,20984.00,21498.00,22015.00,23039.00,23294.00,23551.00,24063.00,24063.00,24318.00,24829.00,24830.00,24830.00,25086.00,25086.00,24575.00,24063.00,23806.00,24317.00,24061.00,24316.00,24061.00,22783.00,22270.00,21757.00,21501.00,21502.00,21758.00,22269.00,22270.00,22271.00,22781.00,22779.00,23548.00,23806.00,23551.00,23295.00,22526.00,22013.00,22269.00,21757.00,21246.00,21503.00,19967.00,20735.00,20479.00,20478.00,31487.00,51199.00,56063.00,58623.00,57599.00,43003.00,34814.00,34040.00,32759.00,30714.00,32245.00,33277.00,35327.00,37119.00,38390.00,40123.00,41176.00,40693.00,39935.00,40959.00,40958.00,40442.00,43766.00,47602.00,48869.00,47823.00,48055.00,51381.00,55732.00,55232.00,51603.00,49296.00,49861.00,50369.00,50906.00,52196.00,52191.00,50911.00,50135.00,49107.00,47078.00,45812.00,46046.00,47088.00,47854.00,48085.00,49347.00,51077.00,52881.00,52881.00,54155.00,54424.00,54956.00,54489.00,52917.00,52202.00,51199.00,50426.00,49612.00,48769.00,48222.00,47973.00,46685.00,45390.00,44636.00,43107.00,43384.00,43394.00,44414.00,46473.00,48294.00,49587.00,50356.00,50869.00,49845.00,47025.00,44464.00,42162.00,41381.00,39038.00,34922.00,28802.00,19866.00,13985.00,12195.00,13217.00,11941.00,13719.00,24952.00,27744.00,28504.00,27227.00,27238.00,27260.00,28547.00,29325.00,28809.00,28551.00,28290.00,28266.00,28252.00,28246.00,28760.00,29266.00,29011.00,28775.00,28780.00,29038.00,29032.00,29284.00,29023.00,29015.00,28762.00,29026.00,29278.00,29273.00,29016.00,28765.00,28774.00,28270.00,28017.00,28266.00,28521.00,28775.00,28774.00,28519.00,28261.00,28260.00,28006.00,28006.00,28005.00,27747.00,27746.00,27747.00,27746.00,27747.00,28007.00,28261.00,28262.00,28262.00,28261.00,28262.00,28261.00,28261.00,28262.00,28516.00,28515.00,28258.00,28002.00,28003.00,28002.00,28258.00,28258.00,28514.00,28256.00,27741.00,27484.00,27740.00,28252.00,28510.00,28509.00,27998.00,28253.00,28509.00,28509.00,28254.00,27742.00,27485.00,27483.00,27481.00,27481.00,27993.00,27993.00,27740.00,27997.00,28250.00,27481.00,26968.00,27224.00,27223.00,27222.00,27734.00,27735.00,27480.00,27481.00,27479.00,27735.00,27990.00,27735.00,27736.00,27738.00,27482.00,27226.00,27485.00,27996.00,28250.00,28249.00,27992.00,27738.00,27995.00,28251.00,27483.00,27740.00,27481.00,27224.00,27224.00,27478.00,27479.00,28249.00,28764.00,28508.00,28250.00,27992.00,27991.00,27993.00,28250.00,28762.00,29018.00,29018.00,29019.00,28764.00,29019.00,29018.00,28763.00,29022.00,29796.00,29538.00,29280.00,29023.00,29280.00,29535.00,29531.00,29278.00,28774.00,29538.00,30304.00,30580.00,30306.00,30044.00,29521.00,29517.00,29776.00,29272.00,28770.00,29029.00,29286.00,30052.00,31334.00,32102.00,33899.00,34159.00,34419.00,34675.00,34929.00,35439.00,35440.00,35957.00,35446.00,37498.00,38778.00,35193.00,29559.00,25457.00,23152.00,22390.00,27766.00,41333.00,42106.00,42372.00,42635.00,43149.00,44941.00,44685.00,42634.00,42640.00,44174.00,44426.00,43912.00,45193.00,45963.00,45194.00,44174.00,43663.00,44429.00,46226.00,46232.00,45971.00,46954.00,46920.00,45393.00,45914.00,45663.00,46173.00,47195.00,47450.00,47196.00,46428.00,46940.00,46170.00,47198.00,48479.00,48480.00,47207.00,46705.00,46181.00,51280.00,51789.00,50509.00,48974.00,48976.00,49747.00,50772.00,51794.00,52305.00,51536.00,51535.00,52046.00,52302.00,53072.00,53330.00,53581.00,53066.00,53836.00,53581.00,53581.00,55373.00,55373.00,54604.00,55116.00,54860.00,55118.00,54351.00,54607.00,56655.00,56913.00,55889.00,55379.00,55894.00,56149.00,56403.00,56410.00,56928.00,57697.00,58210.00,58475.00,58482.00,58744.00,58751.00,59002.00,59254.00,59509.00,59251.00,59503.00,59498.00,59243.00,58735.00,58483.00,58482.00,58739.00,59252.00,59745.00,59719.00,59458.00,58946.00,58942.00
