4350,4360,4367,4377,4386,4394,4397,4404,4407,4412,4417,4427,4431,4440,4445,4453,4457,4465,4471,4478,4485,4493,4501,4510,4518,4524,4528,4537,4538,4549,4556,4565,4572,4581,4585,4588,4593,4601,4604,4613,4622,4630,4636,4643,4645,4650,4656,4663,4668,4673,4680,4684,4693,4700,4709,4716,4722,4726,4733,4740,4747,4754,4760,4766,4772,4777,4783,4790,4795,4801,4809,4821,4831,4843,4853,4856,4860,4863,4869,4873,4881,4887,4895,4904,4913,4924,4929,4934,4939,4945,4949,4957,4964,4970,4977,4984,4989,4996,5005,5013,5019,5027,5034,5042,5049,5056,5060,5067,5071,5081,5086,5097,5102,5109,5116,5123,5128,5132,5140,5142,5150,5157,5168,5175,5182,5187,5192,5199,5206,5210,5223,5227,5233,5240,5250,5255,5262,5271,5280,5290,5302,5310,5314,5323,5327,5334,5335,5345,5350,5355,5361,5369,5373,5383,5393,5402,5409,5415,5423,5429,5432,5442,5449,5462,5466,5474,5478,5486,5490,5497,5502,5508,0,0,0,0,0,0,0,0,0,5682,5651,5612,5585,5565,5559,5556,5565,5578,5586,5593,5599,5601,5606,5614,5620,5627,5638,5648,5655,5662,5667,5674,5679,5685,5691,5694,5687,0,0,0,0,1768,1760,1755,1751,1749,1748,1749,1749,1749,1748,1748,1748,1748,1747,1747,1745,1743,1740,1737,1735,1734,1733,1733,1731,1732,1733,1734,1733,1733,1733,1731,1731,1731,1731,1730,1730,1730,1729,1730,1731,1732,1732,1734,1734,1735,1735,1736,1735,1736,1736,1738,1739,1741,1742,1743,1744,1744,1744,1745,1745,1746,1747,1748,1748,1749,1749,1748,1748,1749,1750,1750,1751,1751,1751,1752,1753,1754,1755,1755,1756,1757,1755,1752,1745,1743,1739,1739,1736,1735,1732,1733,1738,1739,1741,1748,1747,1748,1754,1760,1762,1776,1792,1812,1826,1834,1843,1848,1851,1855,1859,1861,1864,1867,1869,1871,1877,1884,1896,0,0,0,0,0,3599,3590,3587,3585,3585,3585,3590,0,0,3890,3892,3894,3895,3907,0,0,0,0,0,0,0,0,0,0,0,3736,3728,3723,3721,3720,3719,3718,3724,0,0,0,0,0,0,0,0,0,0,0,0,0,0,0,0,0,0,0,0,0,0,0,0,0,0,0,0,0,0,0,0,0,0,0,0,0,0,0,0,0,0,0,0,0,0,0,0,0,0,0,0,0,0,0,0,0,0,0,0,0,0,0,0,0,0,0,8612,8609,8599,8594,8577,8562,8554,8540,8519,8504,0,0,8438.001,8420.001,8417.001,8402.001,8383,8367.001,8351.001,8330.001,8340.001,8350.001,8370.001,8399.001,8417.001,8426.001,8440.001,8441.001,0,0,0,0,9686,9666,9651,9644,9626,0,0,0,0,0,0,0,0,0,0,0,0,0,0,0,0,0,0,0,0,0,0,0,0,0,0,0,0,0,0,0,0,0,0,9580,0,9574,9565,9546,9527,9509,9497,9481,9460,9443,9419,9402,9369,9357,9338,9318,9292,9270,9254,9231,9208,9197,9174,9153,9140,9125,9110,9098,9076,9051,9029,9008,8984,8966,8949,8923,8902,8880,8857,8835,8816,8794,8791,8774,8771,8764,8740,8711,8690,8661,8638,8617,8598,8589,8573,8559,8542,8534,8517,8501,8481,8474,8457,8437.001,8422.001,8403.001,8377.001,8363.001,8342.001,8322.001,8306.001,8293.001,8271,8257,8242.001,8223,8202,8190,8171,8154,8136,8122,8103,8091,0,0,0,0,0,0,0,0,0,0,0,0,0,0,0,0,0,0,0,0,0,0,0,0,0,0,0,0,0,0,0,0,0,0,0,0,0,0,0,0,0,0,0,0,0,0,0,0
4349,4357,4365,4376,4386,4392,4397,4404,4406,4413,4418,4426,4432,4440,4446,4453,4458,4462,4470,4476,4483,4492,4500,4508,4515,4521,4528,4532,4538,4546,4553,4563,4569,4577,4582,4585,4586,4596,4598,4607,4618,4628,4631,4637,4642,4647,4654,4660,4668,4674,4682,4685,4694,4700,4710,4712,4721,4724,4733,4739,4747,4753,4758,4765,4770,4777,4783,4789,4793,4798,4808,4817,4828,4839,4849,4854,4858,4863,4869,4874,4882,4887,4895,4901,4912,4918,4922,4933,4936,4941,4946,4955,4960,4967,4973,4982,4990,4999,5008,5016,5020,5026,5033,5044,5047,5053,5060,5066,5069,5078,5089,5094,5101,5109,5114,5121,5127,5133,5133,5139,5145,5154,5167,5174,5182,5187,5191,5201,5209,5216,5223,5228,5235,5242,5249,5253,5261,5267,5276,5289,5297,5310,5317,5321,5327,5332,5335,5342,5346,5357,5361,5368,5373,5381,5390,5401,5408,5415,5421,5428,5435,5444,5450,5459,5467,5475,5476,5487,5491,5497,5502,5513,5520,0,0,0,0,0,5755,0,0,5678,5646,5608,5578,5562,5554,5552,5557,5575,5583,5591,5599,5604,5604,5612,5617,5628,5639,5646,5652,5660,5668,5674,5682,5685,5690,5693,5688,0,0,0,0,1770,1762,1757,1752,1750,1749,1750,1750,1750,1749,1749,1748,1749,1748,1747,1745,1743,1739,1737,1735,1735,1734,1734,1733,1735,1736,1737,1737,1736,1734,1733,1733,1732,1732,1732,1732,1732,1732,1732,1734,1734,1734,1736,1736,1737,1737,1738,1738,1738,1738,1740,1741,1742,1743,1745,1745,1746,1746,1747,1747,1748,1749,1750,1751,1751,1751,1751,1750,1751,1752,1752,1752,1753,1754,1755,1756,1757,1758,1757,1756,1756,1752,1749,1742,1738,1735,1735,1736,1737,1736,1739,1741,1740,1745,1751,1748,1751,1758,1767,1773,1792,1803,1821,1831,1839,1845,1850,1853,1856,1860,1862,1864,1867,1869,1871,1879,1889,0,0,0,0,0,0,3591,3589,3587,3586,3586,3587,3593,0,0,3888,3892,3895,3888,3891,0,0,0,0,0,0,0,0,0,0,0,3727,3726,3723,3721,3721,3722,3720,3728,0,0,0,0,0,0,0,0,0,0,0,0,0,7754,0,0,0,0,0,0,0,0,0,0,0,0,0,0,0,0,0,0,0,0,0,0,0,0,0,0,0,0,0,0,0,0,0,0,0,0,0,0,0,0,0,0,0,0,0,0,0,0,0,0,0,0,8585,8608,8599,8590,8584,8571,8557,8547,8535,8519,0,0,0,8440.001,8419.001,8414.001,8395.001,8378.001,8365.001,8351.001,8331.001,8344.001,8358.001,8377.001,8400.001,8414.001,8420.001,8430.001,0,0,0,0,9709,9687,9661,9646,9635,9618,0,0,0,0,0,0,0,0,0,0,0,0,0,0,0,0,0,0,0,0,0,0,0,0,0,0,0,0,0,0,0,0,0,0,9585,0,9572,9566,9540,9523,9505,9493,9471,9453,9431,9410,9391,9368,9357,9337,9318,9290,9264,9247,9225,9206,9196,9175,9150,9137,9122,9103,9091,9075,9051,9025,9008,8986,8966,8947,8921,8900,8877,8848,8830,8814,0,8784,8774,8768,8760,8736,8708,8674,8645,8623,8607,8588,8584,8572,8557,8543,8534,8515,8495,8477,8468,8452,8434.001,8423.001,8399.001,8373.001,8359.001,8342.001,8319.001,8303.001,8290.001,8270,8251.001,8235,8217,8195,8183,8168,8150,8132,8121,8104,8092,0,0,0,0,0,0,0,0,0,0,0,0,0,0,0,0,0,0,0,0,0,0,0,0,0,0,0,0,0,0,0,0,0,0,0,0,0,0,0,0,0,0,0,0,0,0,0,0
4352,4359,4367,4378,4387,4392,4399,4403,4406,4411,4418,4425,4432,4441,4446,4452,4456,4463,4469,4475,4483,4490,4497,4505,4510,4518,4523,4529,4535,4546,4554,4564,4569,4579,4582,4586,4588,4594,4596,4605,4613,4624,4630,4637,4642,4647,4653,4659,4668,4673,4680,4684,4696,4701,4709,4712,4720,4725,4733,4740,4747,4751,4759,4765,4770,4775,4782,4787,4793,4796,4802,4813,4828,4839,4848,4852,4860,4863,4871,4876,4883,4889,4893,4900,4908,4920,4924,4933,4935,4944,4947,4956,4963,4968,4973,4985,4990,4999,5009,5016,5021,5030,5034,5044,5046,5053,5057,5065,5069,5078,5084,5092,5097,5105,5112,5117,5123,5130,5130,5136,5144,5151,5163,5170,5179,5186,5193,5203,5206,5216,5218,5223,5231,5238,5243,5252,5256,5265,5279,5289,5297,5308,5315,5319,5324,5330,5333,5339,5348,5353,5358,5367,5373,5381,5386,5397,5404,5415,5420,5428,5435,5444,5450,5456,5465,5473,5475,5481,5490,5497,5501,5516,0,0,0,0,0,5785,5773,0,0,5689,5654,5615,5585,5563,5555,5553,5556,5576,5586,5591,5597,5601,5604,5610,5616,5624,5638,5642,5655,5658,5667,5667,5676,5680,5688,5692,5692,0,0,0,0,1771,1763,1757,1753,1751,1749,1750,1750,1750,1750,1750,1749,1749,1747,1746,1744,1742,1739,1737,1736,1735,1736,1737,1737,1738,1739,1739,1738,1738,1736,1735,1735,1734,1734,1734,1734,1733,1734,1734,1736,1736,1737,1739,1739,1740,1739,1740,1740,1740,1740,1743,1743,1744,1745,1746,1746,1748,1748,1749,1749,1749,1749,1750,1751,1752,1752,1753,1752,1752,1753,1754,1754,1755,1757,1757,1758,1759,1760,1758,1758,1757,1752,1748,1742,1739,1734,1735,1736,1737,1738,1742,1742,1742,1744,1751,1752,1759,1767,1777,1787,1801,1818,1828,1836,1841,1847,1852,1855,1858,1861,1863,1865,1867,1870,1874,1885,1902,0,0,0,4277,0,0,3583,3587,3587,3586,3586,3589,3591,0,0,3888,3893,3894,3888,3888,0,0,0,0,0,0,0,0,0,0,0,3722,3721,3720,3719,3720,3722,3723,3732,0,0,0,0,0,0,0,0,0,7708,7732,7748,0,7765,0,0,0,0,0,0,0,0,0,0,0,0,0,0,0,0,0,0,0,0,0,0,0,0,0,0,0,0,0,0,0,0,0,0,0,0,0,0,0,0,0,0,0,0,0,0,0,0,0,0,0,0,8572,8582,8581,8582,8576,8563,8554,8545,8534,8518,0,0,0,8435.001,8419.001,8410.001,8395.001,8377.001,8369.001,8354.001,8343.001,8350.001,8362.001,8376.001,8398.001,8411.001,8414.001,8426.001,0,0,0,0,9699,9677,9652,9639,9627,0,0,0,0,0,0,0,0,0,0,0,0,0,0,0,0,0,0,0,0,0,0,0,0,0,0,0,0,0,0,0,0,0,0,0,9578,9580,9567,9566,9541,9529,9507,9496,9469,9455,9425,9406,9391,9374,9360,9345,9323,9294,9259,9238,9218,9204,9185,9164,9141,9130,9116,9099,9092,9079,9051,9021,9003,8978,8954,8933,8907,8889,8870,8846,8829,8817,8794,8785,8775,8766,8759,8737,8712,8682,8653,8633,8617,8599,8590,8578,8555,8545,8532,8511,8490,8476,8463,8449,8435.001,8421.001,8402.001,8375.001,8359.001,8340.001,8319.001,8303.001,8290.001,8275,8259,8243.001,8222,8200,8180,8164,8141,8126,8116,8106,8093,0,0,0,0,0,0,0,0,0,0,0,0,0,0,0,0,0,0,0,0,0,0,0,0,0,0,0,0,0,0,0,0,0,0,0,0,0,0,0,0,0,0,0,0,0,0,0,0
4352,4359,4368,4378,4388,4392,4397,4400,4404,4409,4417,4424,4430,4440,4446,4448,4456,4464,4469,4477,4486,4491,4498,4505,4509,4515,4520,4529,4531,4542,4552,4561,4566,4577,4581,4583,4586,4592,4595,4603,4612,4623,4629,4636,4641,4644,4652,4658,4666,4673,4679,4687,4695,4699,4704,4708,4717,4719,4730,4736,4745,4748,4755,4760,4769,4775,4783,4788,4794,4796,4805,4814,4824,4837,4847,4854,4858,4866,4870,4876,4882,4888,4890,4895,4903,4915,4921,4928,4934,4943,4944,4954,4961,4969,4972,4982,4989,5000,5008,5017,5018,5029,5034,5041,5046,5052,5056,5063,5070,5075,5083,5090,5095,5100,5108,5119,5123,5129,5134,5138,5144,5153,5162,5172,5178,5187,5193,5200,5206,5213,5217,5226,5230,5238,5242,5249,5254,5266,5275,5294,5299,5306,5312,5318,5325,5327,5331,5336,5346,5350,5360,5369,5371,5378,5386,5394,5403,5412,5420,5428,5436,5443,5449,5457,5466,5475,5478,5484,5490,5496,5501,5513,0,0,0,0,0,0,0,0,0,0,5648,5609,5589,5564,5555,5548,5560,5577,5586,5592,5598,5600,5604,5608,5619,5622,5631,5640,5647,5656,5666,5666,5677,5682,5688,5691,5694,5685,0,0,0,0,1764,1760,1755,1752,1751,1751,1751,1751,1751,1750,1749,1749,1747,1746,1745,1742,1739,1738,1738,1737,1738,1740,1740,1741,1742,1742,1741,1740,1738,1738,1737,1737,1737,1736,1736,1736,1736,1736,1737,1738,1739,1740,1740,1741,1741,1741,1741,1743,1743,1744,1745,1746,1746,1746,1746,1748,1748,1748,1749,1749,1749,1750,1752,1753,1753,1754,1753,1754,1754,1755,1755,1757,1760,1760,1761,1762,1762,1759,1757,1755,1749,1746,1742,1740,1735,1734,1735,1736,1737,1741,1741,1741,1743,1751,1752,1758,1768,1781,1793,1806,1824,1832,1838,1843,1850,1853,1856,1860,1862,1864,1866,1867,1869,1873,0,0,0,4267,0,4274,0,0,3580,3586,3586,3586,3586,3587,3591,0,0,3889,3896,3895,3893,3892,0,0,0,0,0,0,0,0,0,0,0,3722,3722,3721,3721,3722,3723,3725,3735,0,0,0,0,0,0,0,0,0,7711,7731,7753,0,0,0,0,0,0,0,0,0,0,0,0,0,0,0,0,0,0,0,0,0,0,0,0,0,0,0,0,0,0,0,0,0,0,0,0,0,0,0,0,0,0,0,0,0,0,0,0,0,0,0,0,0,0,0,8579,8580,8576,8575,8563,8555,8546,8539,8520,8505,8483,8466,8439.001,8424.001,8410.001,8400.001,8376.001,8364.001,8355.001,8343.001,8346.001,8360.001,8372.001,8393.001,8404.001,8411.001,8420.001,0,0,0,0,9704,9669,9642,9636,9620,0,0,0,0,0,0,0,0,0,0,0,0,0,0,0,0,0,0,0,0,0,0,0,0,0,0,0,0,0,0,0,0,0,0,0,0,9566,9557,9552,9535,9520,9501,9485,9460,9433,9413,9393,9379,9360,9355,9339,9321,9292,9265,9231,9212,9204,9178,9160,9144,9136,9113,9094,9084,9074,9043,9013,8995,8975,8950,8935,8910,8899,8879,0,0,0,0,8791,8775,8764,8755,8737,8713,8688,8664,8640,8623,8606,8596,8583,8561,8549,8533,8513,8494,8480,8466,8451,8435.001,8416.001,8398.001,8374.001,8356.001,8336.001,8319.001,8297.001,8280,8266,8249.001,8230,8218,8197,8180,8162,8142,8125,8119,8107,8096,0,0,0,0,0,0,0,0,0,0,0,0,0,0,0,0,0,0,0,0,0,0,0,0,0,0,0,0,0,0,0,0,0,0,0,0,0,0,0,0,0,0,0,0,0,0,0,0
4351,4358,4365,4376,4384,4389,4394,4397,4401,4406,4412,4419,4428,4435,4442,4446,4453,4459,4466,4474,4483,4489,4498,4505,4508,4514,4518,4525,4530,4540,4550,4561,4567,4576,4581,4583,4585,4592,4595,4600,4611,4622,4626,4634,4638,4644,4651,4657,4664,4671,4676,4683,4691,4697,4704,4709,4718,4723,4729,4734,4741,4746,4753,4759,4768,4774,4782,4788,4793,4797,4804,4813,4822,4836,4847,4853,4858,4866,4873,4880,4884,4889,4891,4896,4901,4914,4922,4928,4935,4942,4948,4955,4963,4971,4974,4983,4986,4994,5001,5012,5017,5028,5036,5041,5046,5052,5057,5063,5070,5077,5082,5085,5094,5097,5106,5116,5122,5128,5135,5139,5143,5152,5159,5168,5178,5188,5195,5201,5204,5208,5213,5221,5226,5234,5238,5246,5253,5268,5277,5290,5299,5305,5315,5314,5323,5327,5329,5334,5343,5347,5357,5366,5372,5377,5381,5388,5398,5407,5419,5427,5434,5444,5449,5456,5467,5472,5473,5479,5485,5490,5498,5508,0,0,0,0,0,0,0,0,0,5675,5649,5609,5584,5566,5555,5547,5561,5578,5585,5589,5594,5596,5601,5606,5614,5618,5631,5634,5642,5652,5660,5667,5673,5681,5687,5692,5695,5690,0,0,0,0,1766,1761,1756,1752,1751,1751,1751,1751,1751,1751,1750,1750,1748,1747,1745,1743,1740,1739,1739,1740,1741,1743,1744,1744,1744,1744,1743,1743,1741,1741,1741,1739,1739,1738,1737,1737,1738,1738,1740,1740,1741,1741,1742,1742,1742,1743,1744,1745,1745,1746,1747,1747,1747,1748,1749,1750,1751,1750,1751,1750,1750,1751,1752,1753,1754,1754,1754,1755,1756,1756,1757,1759,1761,1761,1762,1763,1763,1760,1758,1756,1752,1751,1746,1744,1739,1737,1738,1741,1741,1745,1749,1750,1751,1759,1762,1769,1777,1791,1803,1814,1826,1835,1839,1844,1849,1853,1857,1861,1863,1865,1866,1867,1869,1874,0,0,4261,0,0,0,0,0,3580,3584,3584,3585,3585,3588,3592,0,0,3891,3901,3902,3898,3896,0,0,0,0,0,0,0,0,0,0,0,3721,3721,3720,3720,3721,3723,3725,3737,0,0,0,0,0,0,0,0,7698,7721,7735,0,0,0,0,0,0,0,0,0,0,0,0,0,0,0,0,0,0,0,0,0,0,0,0,0,0,0,0,0,0,0,0,0,0,0,0,0,0,0,0,0,0,0,0,0,0,0,0,0,0,0,0,0,0,0,0,8583,8579,8575,8572,8561,8552,8540,8530,8513,8498,8474,8460,8435.001,8414.001,8396.001,8390.001,8369.001,8358.001,8351.001,8345.001,8347.001,8359.001,8372.001,8390.001,8400.001,8407.001,8413.001,0,0,0,0,9701,9672,9644,9632,9613,0,0,0,0,0,0,0,0,0,0,0,0,0,0,0,0,0,0,0,0,0,0,0,0,0,0,0,0,0,0,0,0,0,0,0,0,9567,9558,9554,9535,9524,9498,9474,9450,9423,9402,9385,9368,9346,9341,9324,0,9287,9257,9227,9208,9202,9173,9156,9142,9132,9112,9089,9080,9062,9035,9005,8995,8975,8954,8937,8911,8894,8876,0,8842,8826,8808,8797,8779,8759,8752,8731,8709,8688,8669,8646,8627,8610,8600,8584,8559,8548,8529,8507,8493,8477,8460,8442.001,8426.001,8407.001,8391.001,8370.001,8353.001,8336.001,8321.001,8295.001,8274,8261,8240.001,8224,8213,8198,8180,8163,8141,8124,8115,8104,8089,0,0,0,0,0,0,0,0,0,0,0,0,0,0,0,0,0,0,0,0,0,0,0,0,0,0,0,0,0,0,0,0,0,0,0,0,0,0,0,0,0,0,0,0,0,0,0,0
4349,4355,4363,4373,4379,4385,4391,4395,4398,4406,4412,4418,4427,4435,4440,4445,4454,4460,4466,4473,4482,4487,4493,4500,4503,4509,4514,4523,4528,4538,4546,4558,4563,4573,4580,4584,4586,4592,4596,4603,4611,4620,4627,4632,4638,4644,4651,4658,4665,4673,4677,4684,4689,4696,4703,4709,4714,4721,4728,4730,4738,4742,4752,4757,4767,4773,4782,4786,4794,4798,4803,4814,4823,4835,4843,4852,4859,4866,4872,4880,4882,4887,4890,4897,4902,4913,4921,4927,4934,4942,4947,4957,4964,4969,4973,4980,4985,4993,5001,5010,5015,5026,5032,5041,5048,5052,5059,5063,5071,5075,5081,5085,5093,5097,5107,5116,5121,5130,5133,5138,5141,5149,5158,5169,5181,5188,5193,5199,5199,5205,5212,5219,5224,5232,5235,5244,5250,5261,5276,5289,5297,5307,5313,5314,5320,5324,5329,5328,5337,5349,5360,5368,5376,5378,5381,5387,5397,5406,5417,5422,5431,5440,5447,5453,5464,5472,5471,5477,5481,5488,5491,5499,0,0,0,0,0,0,0,0,0,0,5629,5591,5564,5547,5541,5539,5554,5575,5582,5588,5592,5595,5600,5610,5613,5620,5628,5635,5644,5650,5658,5665,5676,5683,5688,5694,5697,5693,0,0,0,0,1768,1762,1757,1754,1752,1752,1751,1752,1751,1750,1749,1749,1748,1748,1745,1745,1742,1742,1742,1743,1743,1745,1746,1746,1746,1745,1745,1744,1743,1742,1741,1740,1739,1739,1738,1738,1739,1739,1741,1741,1743,1744,1744,1744,1745,1745,1746,1747,1747,1747,1748,1748,1749,1749,1749,1751,1752,1752,1752,1752,1752,1752,1753,1753,1754,1755,1754,1755,1756,1757,1759,1762,1764,1764,1764,1764,1764,1760,1760,1756,1753,1752,1749,1747,1740,1735,1734,1738,1740,1747,1758,1758,1759,1768,1770,1777,1784,1800,1811,1818,1832,1835,1840,1845,1850,1854,1857,1861,1863,1865,1865,1868,1867,0,0,0,4259,0,0,0,0,0,3582,3582,3582,3583,3583,3585,3590,3617,0,3886,3899,3901,3898,3894,0,0,0,0,0,0,0,0,0,0,3731,3720,3719,3720,3719,3719,3723,3724,3738,0,0,0,0,0,0,7662,0,7694,7728,7739,0,0,0,0,0,0,0,0,0,0,0,0,0,0,0,0,0,0,0,0,0,0,0,0,0,0,0,0,0,0,0,0,0,0,0,0,0,0,0,0,0,0,0,0,0,0,0,0,0,0,0,0,0,0,0,0,8566,8571,8570,8569,8559,8552,8538,8529,8514,8501,8478,8464,8439.001,8416.001,8396.001,8389.001,8376.001,8362.001,8354.001,8351.001,8355.001,8362.001,8375.001,8387.001,8396.001,8398.001,8410.001,0,0,0,0,0,0,9628,9615,9606,0,0,0,0,0,0,0,0,0,0,0,0,0,0,0,0,0,0,0,0,0,0,0,0,0,0,0,0,0,0,0,0,0,0,0,0,9566,9553,9548,9528,9519,9488,9467,9445,9426,9401,9381,9359,9342,9330,9315,0,9284,0,9222,9204,9190,9164,9151,9139,9126,9107,9087,9069,9054,9035,9004,8994,8974,8954,8933,8914,8889,8873,0,8836,8822,8808,8794,8775,8756,8744,8724,8702,8679,8663,8644,8624,8610,8599,8580,8551,8540,8517,8496,8481,8467,8448,8433.001,8420.001,8405.001,8389.001,8367.001,8349.001,8334.001,8317.001,8293.001,8272,8258,8236,8220,8206,8193,8176,8163,8139,8124,8114,8103,8081,0,0,0,0,0,0,0,0,0,0,0,0,0,0,0,0,0,0,0,0,0,0,0,0,0,0,0,0,0,0,0,0,0,0,0,0,0,0,0,0,0,0,0,0,0,0,0,0
4347,4354,4362,4371,4379,4386,4392,4396,4399,4404,4410,4417,4423,4432,4440,4442,4451,4457,4464,4472,4483,4489,4495,4502,4506,4509,4515,4522,4526,4536,4545,4553,4560,4573,4580,4586,4591,4595,4598,4606,4613,4622,4629,4632,4639,4645,4651,4657,4665,4672,4675,4681,4687,4693,4699,4710,4718,4723,4725,4728,4736,4741,4750,4758,4767,4773,4780,4786,4792,4796,4805,4813,4826,4836,4844,4854,4860,4864,4870,4876,4880,4883,4888,4897,4904,4911,4920,4927,4935,4942,4950,4954,4963,4968,4973,4978,4984,4991,4997,5007,5014,5025,5032,5040,5049,5053,5058,5063,5068,5071,5080,5083,5093,5097,5107,5115,5121,5128,5134,5138,5141,5148,5155,5167,5175,5186,5191,5194,5197,5202,5207,5215,5220,5227,5232,5242,5248,5258,5273,5286,5295,5303,5313,5314,5321,5326,5330,5333,5341,5350,5359,5368,5375,5380,5383,5390,5398,5407,5416,5424,5432,5439,5447,5451,5460,5465,5467,5472,5478,5484,5489,5495,0,0,0,0,0,0,0,0,0,0,0,0,5561,5541,5540,5535,5556,5571,5577,5583,5588,5589,5596,5605,5613,5624,5629,5637,5643,5650,5659,5662,5670,5682,5689,5693,5698,5700,5697,0,0,0,0,1762,1757,1754,1753,1753,1752,1752,1750,1750,1749,1749,1748,1748,1746,1746,1744,1744,1745,1745,1746,1747,1749,1748,1748,1747,1747,1745,1745,1745,1744,1743,1742,1742,1742,1741,1741,1742,1743,1743,1745,1745,1746,1747,1747,1747,1748,1749,1749,1749,1749,1749,1750,1750,1751,1752,1753,1752,1752,1752,1753,1753,1753,1755,1756,1755,1755,1756,1757,1758,1760,1762,1764,1765,1765,1766,1765,1761,1762,1759,1758,1755,1754,1749,1746,1739,1740,1745,1747,1753,1763,1762,1763,1772,1777,1785,1794,1808,1817,1824,1831,1838,1840,1846,1850,1853,1856,1861,1863,1865,1866,1868,1867,0,0,0,4257,0,0,0,0,3579,3584,3579,3579,3580,3581,3582,3588,3620,0,3881,3894,3894,3900,3902,0,0,0,0,0,0,0,0,0,0,0,3722,3718,3717,3717,3717,3719,3720,3735,0,0,0,0,0,0,7663,0,7704,7738,7743,0,0,0,0,0,0,0,0,0,0,0,0,0,0,0,0,0,0,0,0,0,0,0,0,0,0,0,0,0,0,0,0,0,0,0,0,0,0,0,0,0,0,0,0,0,0,0,0,0,0,0,0,0,0,0,0,8556,8563,8562,8568,8557,8551,8538,8530,8508,8496,8475,8461,8439.001,8418.001,8395.001,8387.001,8370.001,8354.001,8348.001,8344.001,8350.001,8358.001,8374.001,8384.001,8398.001,8395.001,8403.001,0,0,0,0,9655,9631,9625,9616,9609,0,0,0,0,0,0,0,0,0,0,0,0,0,0,0,0,0,0,0,0,0,0,0,0,0,0,0,0,0,0,0,0,0,0,0,0,9560,9552,9543,9529,9520,9492,9467,9451,9423,9399,9380,9361,9342,9340,9324,9308,9289,0,9222,9205,9190,9162,9147,9142,9130,9109,9090,9077,9060,9039,9008,8992,8971,8948,8927,8908,8886,8868,8853,8837,8821,8808,8796,8773,8754,8737,8714,8691,8676,8658,8644,8624,8617,8600,8583,8553,8542,8514,8495,8481,8467,8445.001,8431.001,8417.001,8397.001,8385.001,8363.001,8346.001,8326.001,8316.001,8294.001,8274,8259,8241.001,8225,8211,8196,8177,8158,8134,8118,8107,8094,0,0,0,0,0,0,0,0,0,0,0,0,0,0,0,0,0,0,0,0,0,0,0,0,0,0,0,0,0,0,0,0,0,0,0,0,0,0,0,0,0,0,0,0,0,0,0,0,0
4351,4357,4364,4371,4378,4385,4389,4393,4399,4402,4408,4416,4423,4429,4439,4442,4449,4454,4461,4467,4478,4487,4494,4503,4507,4512,4515,4525,4526,4535,4542,4550,4556,4569,4576,4583,4591,4598,4603,4610,4615,4623,4628,4631,4636,4645,4650,4656,4666,4671,4676,4681,4688,4694,4700,4708,4716,4719,4723,4726,4735,4741,4749,4757,4767,4772,4779,4786,4793,4799,4805,4816,4825,4837,4843,4851,4856,4861,4867,4873,4876,4885,4891,4898,4904,4912,4917,4922,4929,4939,4946,4952,4960,4966,4970,4976,4983,4988,4995,5002,5007,5016,5025,5037,5044,5053,5059,5063,5069,5072,5077,5085,5092,5098,5104,5116,5121,5128,5133,5142,5141,5148,5157,5164,5175,5182,5188,5190,5193,5201,5204,5212,5219,5223,5231,5240,5248,5258,5271,5285,5295,5299,5310,5315,5319,5325,5328,5333,5343,5350,5361,5368,5372,5377,5381,5388,5395,5405,5413,5420,5430,5438,5444,5450,5459,5461,5463,5469,5475,5480,5488,5493,0,0,0,0,0,0,0,5705,5673,5641,5620,5584,5559,5538,5531,5531,5550,5561,5570,5577,5582,5587,5593,5604,5611,5622,5631,5637,5644,5650,5658,5663,5674,5682,5692,5696,5701,5705,5708,0,0,0,0,1764,1758,1756,1755,1754,1753,1752,1750,1749,1749,1749,1749,1750,1749,1749,1748,1748,1748,1749,1749,1749,1750,1750,1749,1749,1748,1747,1747,1747,1746,1745,1744,1744,1743,1742,1743,1744,1744,1745,1746,1747,1747,1748,1749,1750,1751,1751,1751,1751,1750,1750,1751,1752,1752,1753,1753,1753,1754,1754,1755,1755,1755,1756,1757,1756,1756,1757,1757,1759,1760,1763,1765,1765,1765,1765,1764,1760,1761,1759,1758,1755,1753,1748,1744,1740,1742,1748,1750,1758,1764,1764,1765,1777,1779,1788,1796,1807,1817,1825,1832,1838,1841,1845,1850,1854,1856,1862,1863,1866,1867,1869,0,0,0,0,0,0,0,0,3582,3589,3591,3580,3580,3580,3581,3582,3588,3616,0,3878,3891,3895,3905,0,0,0,0,0,0,0,0,0,0,0,0,3730,3722,3718,3718,3718,3717,3719,3736,0,0,0,0,0,7671,7682,0,7715,7736,7732,0,0,0,0,0,0,0,0,0,0,0,0,0,0,0,0,0,0,0,0,0,0,0,0,0,0,0,0,0,0,0,0,0,0,0,0,0,0,0,0,0,0,0,0,0,0,0,0,0,0,0,0,0,0,0,0,8571,8573,8566,8573,8562,8550,8537,8525,8503,8485,8464,8451,8436.001,8408.001,8394.001,8384.001,8366.001,8349.001,8349.001,8337.001,8343.001,8351.001,8366.001,8372.001,8390.001,8390.001,8401.001,0,0,0,0,9652,9628,9623,9617,9608,0,0,0,0,0,0,0,0,0,0,0,0,0,0,0,0,0,0,0,0,0,0,0,0,0,0,0,0,0,0,0,0,0,0,0,0,0,9557,9539,9524,9509,9489,9461,9446,9413,9392,9369,9350,9330,9334,9316,9303,9285,9260,9221,9200,9187,9166,9154,9148,9135,9108,9091,9074,9061,9043,9013,8994,8974,8949,8929,8907,8885,8867,8853,8835,8819,8808,8794,8772,8755,8736,8715,8693,8674,8653,8640,8619,8610,8594,8575,8548,8539,8514,8496,8484,8469,8447,8429.001,8414.001,8393.001,8378.001,8357.001,8339.001,8320.001,8312.001,8290.001,8271,8250.001,8231,8214,8199,8184,8172,8153,8134,8119,8107,8085,0,0,0,0,0,0,0,0,0,0,0,0,0,0,0,0,0,0,0,0,0,0,0,0,0,0,0,0,0,0,0,0,0,0,0,0,0,0,0,0,0,0,0,0,0,0,0,0,0
4350,4355,4363,4371,4377,4384,4391,4396,4403,4408,4412,4417,4423,4427,4437,4442,4447,4453,4461,4466,4477,4488,4496,4502,4506,4511,4514,4523,4527,4537,4543,4549,4554,4565,4573,4581,4589,4599,4603,4608,4613,4620,4624,4627,4632,4640,4650,4654,4664,4669,4676,4683,4686,4694,4699,4707,4714,4718,4725,4728,4734,4741,4749,4757,4764,4772,4778,4785,4791,4798,4803,4814,4824,4835,4842,4850,4853,4858,4863,4868,4872,4883,4889,4895,4900,4910,4917,4922,4930,4938,4945,4951,4957,4963,4968,4976,4983,4991,4998,5004,5010,5018,5024,5036,5042,5052,5053,5059,5063,5073,5079,5087,5093,5099,5106,5114,5121,5129,5136,5141,5145,5149,5156,5166,5173,5181,5184,5188,5194,5199,5204,5210,5216,5222,5230,5239,5247,5258,5270,5282,5288,5299,5304,5308,5316,5324,5331,5335,5343,5352,5360,5366,5373,5377,5382,5389,5396,5405,5414,5419,5427,5435,5443,5447,5453,5455,5457,5462,5471,5477,5483,5488,0,0,0,0,0,0,0,5705,5677,5647,5628,5583,5548,5533,5523,5529,5548,5561,5565,5572,5577,5583,5592,5606,5615,5623,5634,5640,5642,5650,5656,5658,5672,5678,5690,5698,5702,5706,5706,0,0,0,0,0,1758,1755,1754,1753,1752,1752,1749,1749,1749,1749,1750,1751,1750,1750,1750,1750,1750,1750,1751,1750,1752,1752,1752,1751,1751,1749,1748,1747,1747,1746,1745,1745,1746,1745,1746,1747,1748,1748,1749,1749,1750,1750,1751,1752,1753,1753,1752,1752,1752,1751,1752,1753,1753,1754,1755,1755,1755,1756,1756,1756,1757,1757,1757,1758,1758,1759,1760,1761,1763,1764,1765,1766,1765,1762,1761,1758,1759,1759,1760,1758,1755,1748,1744,1740,1743,1750,1752,1759,1766,1768,1767,1777,1783,1791,1802,1815,1823,1828,1834,1839,1842,1846,1849,1853,1855,1860,1863,1866,1867,1870,1872,0,0,0,0,0,0,3577,3588,3591,3591,3578,3579,3578,3579,3579,3587,3615,0,3870,3880,3886,3896,0,0,0,0,0,0,0,0,0,0,0,0,3728,3720,3718,3717,3717,3717,3720,3737,0,0,0,7619,7636,7668,7690,0,0,0,0,0,0,0,0,0,0,0,0,0,0,0,0,0,0,0,0,0,0,0,0,0,0,0,0,0,0,0,0,0,0,0,0,0,0,0,0,0,0,0,0,0,0,0,0,0,0,0,0,0,0,0,0,0,0,0,0,8563,8567,8562,8572,8563,8547,8539,8526,8506,8485,8465,8447,8433.001,8406.001,8398.001,8383,8369.001,8352.001,8351.001,8335.001,8344.001,8350.001,8369.001,8377.001,8400.001,8392.001,8406.001,8399.001,0,0,0,0,9623,9623,9618,9614,0,0,0,0,0,0,0,0,0,0,0,0,0,0,0,0,0,0,0,0,0,0,0,0,0,0,0,0,0,0,0,0,0,0,0,0,0,9558,9548,9522,9517,9495,9471,9450,9428,9397,9377,9353,9338,9332,9323,9307,9294,9263,9222,9193,9178,9158,9142,9139,9127,9108,9097,9086,9069,9048,9020,9001,8975,8946,8923,8901,8876,8860,8849,8831,8812,8800,8787,8766,8749,8729,8706,8688,8669,8644,8637,8619,8605,8588,8571,8545,8535,8514,8496,8482,8461,8439.001,8427.001,8413.001,8393.001,8381.001,8360.001,8338.001,8319.001,8307.001,8290.001,8275,8253.001,8232,8217,8195,8182,8167,8151,8129,8121,8103,8086,0,0,0,0,0,0,0,0,0,0,0,0,0,0,0,0,0,0,0,0,0,0,0,0,0,0,0,0,0,0,0,0,0,0,0,0,0,0,0,0,0,0,0,0,0,0,0,0,0
4349,4356,4365,4374,4380,4389,4395,4399,4408,4413,4416,4423,4429,4433,4441,4445,4451,4457,4463,4469,4481,4491,4498,4504,4506,4511,4515,4523,4529,4539,4543,4549,4553,4562,4569,4577,4585,4595,4600,4608,4612,4619,4623,4628,4635,4641,4649,4655,4665,4669,4675,4683,4690,4693,4701,4706,4711,4717,4724,4728,4737,4742,4752,4757,4762,4767,4774,4782,4788,4796,4802,4811,4822,4830,4838,4847,4851,4853,4860,4867,4876,4879,4885,4894,4900,4908,4911,4920,4925,4931,4940,4948,4956,4963,4969,4974,4986,4992,4998,5004,5007,5012,5018,5031,5039,5049,5052,5061,5064,5074,5079,5086,5091,5099,5103,5113,5117,5127,5132,5136,5143,5147,5155,5160,5169,5173,5184,5188,5194,5199,5207,5211,5216,5222,5230,5239,5247,5257,5271,5281,5288,5297,5303,5306,5312,5322,5329,5334,5342,5350,5354,5361,5369,5375,5380,5388,5397,5402,5412,5420,5425,5431,5438,5443,5449,5455,5459,5462,5469,5477,5481,5488,0,0,0,0,0,0,5726,5707,5673,5642,5622,5583,5557,5533,5528,5533,5555,5565,5566,5573,5580,5585,5596,5604,5615,5623,5632,5640,5642,5649,5654,5660,5670,5686,5692,5697,5703,5707,5709,0,0,0,0,0,1759,1757,1755,1754,1754,1753,1751,1750,1749,1749,1751,1751,1752,1752,1753,1752,1752,1753,1752,1752,1754,1754,1754,1753,1753,1752,1750,1750,1750,1750,1748,1747,1747,1746,1747,1749,1749,1749,1751,1751,1752,1752,1752,1753,1753,1753,1753,1753,1753,1753,1754,1754,1754,1755,1755,1756,1757,1758,1757,1758,1758,1758,1759,1760,1761,1761,1763,1763,1765,1765,1765,1765,1766,1763,1761,1758,1757,1757,1760,1757,1754,1746,1740,1734,1740,1747,1755,1760,1766,1764,1764,1773,1781,1789,1802,1815,1823,1829,1834,1839,1842,1846,1848,1852,1855,1859,1861,1863,1862,1865,1857,0,0,0,0,0,0,3572,3587,3592,3589,3578,3577,3577,3577,3577,3586,3615,0,0,3874,3880,3893,0,0,0,0,0,0,0,0,0,0,0,0,0,3721,3718,3716,3716,3714,3718,3731,0,0,0,7630,7646,7669,7686,0,0,0,0,0,0,0,0,0,0,0,0,0,0,0,0,0,0,0,0,0,0,0,0,0,0,0,0,0,0,0,0,0,0,0,0,0,0,0,0,0,0,0,0,0,0,0,0,0,0,0,0,0,0,0,0,0,0,0,8555,8566,8569,8560,8567,8558,8545,8538,8524,8504,8482,8463,8445.001,8434.001,8410.001,8402.001,8384.001,8367.001,8349.001,8344.001,8328.001,8335.001,8342.001,8361.001,8369.001,8398.001,8390.001,8402.001,8394.001,0,0,0,0,9626,9626,9615,0,0,0,0,0,0,0,0,0,0,0,0,0,0,0,0,0,0,0,0,0,0,0,0,0,0,0,0,0,0,0,0,0,0,0,0,0,0,9558,9547,9524,9519,9498,9475,9454,9430,9394,9381,9361,9341,9336,9328,9311,9292,9260,9218,9189,9173,9157,9142,9139,9129,9111,9101,9083,9065,9040,9014,8991,8967,8939,8917,8895,8868,8853,8843,8825,8810,8797,8782,8769,8758,8730,8708,8685,8661,8633,8630,8613,8601,8581,8568,8540,8530,8507,8493,8475,8455,8434.001,8427.001,8409.001,8389.001,8376.001,8359.001,8335.001,8318.001,8308.001,8292.001,8269,8249.001,8232,8217,8194,8179,8163,8145,8122,8114,8103,8081,0,0,0,0,0,0,0,0,0,0,0,0,0,0,0,0,0,0,0,0,0,0,0,0,0,0,0,0,0,0,0,0,0,0,0,0,0,0,0,0,0,0,0,0,0,0,0,0,0
4356,4360,4368,4376,4382,4392,4400,4405,4414,4418,4423,4430,4437,4440,4447,4450,4454,4459,4470,4476,4488,4497,4504,4509,4511,4516,4521,4528,4536,4546,4550,4555,4559,4566,4573,4580,4590,4597,4602,4610,4615,4620,4623,4628,4637,4643,4650,4658,4665,4670,4676,4683,4689,4692,4698,4703,4710,4717,4726,4732,4738,4742,4748,4754,4760,4766,4772,4779,4787,4793,4800,4807,4818,4829,4837,4843,4848,4850,4855,4863,4872,4878,4882,4888,4894,4903,4911,4918,4925,4932,4938,4947,4954,4960,4969,4974,4984,4991,4997,5001,5004,5009,5017,5031,5035,5045,5047,5053,5059,5069,5077,5083,5090,5096,5100,5109,5120,5123,5131,5139,5143,5149,5156,5161,5167,5175,5182,5190,5196,5201,5209,5211,5220,5225,5233,5242,5250,5260,5271,5282,5287,5295,5299,5307,5313,5321,5328,5334,5340,5347,5353,5358,5366,5373,5381,5388,5398,5404,5414,5416,5425,5430,5436,5441,5448,5453,5458,5461,5469,5477,5482,0,0,0,0,0,0,0,5733,5713,5688,5664,5639,5603,5579,5552,5540,5545,5559,5567,5569,5575,5582,5588,5595,5610,5614,5623,5629,5635,5642,5646,5654,5663,5669,5683,5691,5693,5698,5702,5706,5700,0,0,0,0,0,1758,1756,1754,1753,1752,1751,1750,1750,1750,1751,1752,1752,1753,1753,1753,1753,1753,1754,1754,1755,1755,1755,1755,1755,1754,1753,1753,1753,1753,1752,1751,1751,1750,1750,1751,1751,1751,1751,1751,1752,1752,1753,1754,1755,1755,1755,1755,1755,1755,1756,1756,1756,1757,1757,1757,1759,1759,1759,1759,1760,1759,1761,1762,1764,1765,1767,1766,1766,1767,1767,1766,1766,1765,1761,1758,1757,1755,1757,1754,1753,1749,1746,1743,1749,1754,1756,1758,1761,1760,1761,1769,1777,1785,1799,1811,1822,1827,1834,1838,1842,1845,1849,1852,1855,1859,1862,1863,1864,1862,0,0,0,0,0,0,0,3569,3587,3588,3586,3580,3578,3576,3578,3579,3586,3616,0,0,0,3876,0,0,0,0,0,0,0,0,0,0,0,0,0,0,3722,3718,3716,3717,3715,3716,3727,0,0,0,0,0,0,0,0,7728,0,0,0,0,0,0,0,0,0,0,0,0,0,0,0,0,0,0,0,0,0,0,0,0,0,0,0,0,0,0,0,0,0,0,0,0,0,0,0,0,0,0,0,0,0,0,0,0,0,0,0,0,0,0,0,0,0,0,0,8567,8554,8559,8552,8541,8532,8522,8504,8478,8459,8445.001,8433.001,8407.001,8402.001,0,8362.001,8343.001,8335.001,8318.001,8322.001,8334.001,8355.001,8369.001,8393.001,8386.001,8391.001,0,0,0,0,0,9628,0,0,0,0,0,0,0,0,0,0,0,0,0,0,0,0,0,0,0,0,0,0,0,0,0,0,0,0,0,0,0,0,0,0,0,0,0,0,0,0,9562,9545,9526,9518,9499,9479,9460,9430,9396,9383,9362,9333,9329,9318,9301,9280,9257,9220,9191,9176,9160,9142,9136,9123,9106,9093,9079,9062,9041,9015,8990,8963,8931,8910,8886,8863,8846,8838,8823,8815,8802,8788,8773,8757,8720,0,0,0,8618,8622,8606,8593,8577,8568,8542,8528,8508,8493,8479,8456,8439.001,8430.001,8409.001,8385.001,8372.001,8354.001,8330.001,8318.001,8306.001,8293.001,8269,8250.001,8231,8218,8196,8180,8166,8148,8125,8117,8105,0,0,0,0,0,0,0,0,0,0,0,0,0,0,0,0,0,0,0,0,0,0,0,0,0,0,0,0,0,0,0,0,0,0,0,0,0,0,0,0,0,0,0,0,0,0,0,0,0,0
4374,4378,4380,4383,4388,4395,4401,4409,4420,4428,4434,4441,4446,4449,4454,4458,4463,4472,4481,4487,4497,4505,4510,4514,4516,4522,4527,4536,4544,4555,4561,4568,4569,4572,4576,4581,4590,4599,4607,4613,4619,4624,4627,4636,4642,4649,4655,4664,4670,4675,4683,4690,4695,4698,4705,4709,4715,4723,4730,4736,4741,4747,4746,4753,4755,4758,4768,4773,4783,4791,4799,4808,4816,4826,4835,4839,4845,4848,4857,4862,4873,4880,4884,4889,4893,4904,4907,4918,4922,4929,4935,4945,4954,4960,4969,4975,4982,4987,4994,4996,5002,5007,5013,5025,5033,5042,5046,5053,5057,5065,5074,5082,5086,5095,5105,5107,5113,5121,5125,5134,5140,5146,5152,5157,5167,5172,5183,5189,5200,5205,5212,5214,5221,5225,5233,5240,5250,5262,5272,5279,5284,5292,5295,5303,5311,5316,5325,5329,5335,5342,5349,5354,5364,5369,5379,5387,5396,5400,5410,5412,5420,5425,5433,5441,5445,5451,5458,5459,5468,5474,5479,5483,0,0,0,0,0,0,0,0,0,0,5635,5605,5574,0,5534,5547,5555,5569,5570,5577,5582,5593,5596,5605,5610,5619,5622,5633,5638,5646,5653,5663,5673,5682,5686,5692,5695,5701,5705,5703,5698,0,0,0,0,1760,1757,1754,1753,1753,1752,1752,1752,1752,1752,1752,1753,1754,1755,1755,1755,1756,1756,1756,1757,1758,1758,1758,1757,1757,1756,1755,1756,1755,1754,1754,1753,1752,1752,1753,1753,1753,1753,1753,1753,1754,1754,1756,1756,1756,1756,1756,1756,1756,1757,1757,1757,1758,1758,1759,1761,1761,1760,1760,1761,1761,1763,1764,1766,1766,1767,1766,1766,1765,1765,1766,1764,1763,1760,1760,1757,1757,1757,1754,1752,1750,1746,1742,1750,1754,1758,1761,1766,1765,1766,1773,1780,1787,1798,1812,1822,1828,1835,1839,1842,1844,1848,1852,1854,1859,1861,1859,1855,0,0,4145,0,0,0,0,0,0,3591,3587,3581,3579,3577,3576,3576,3578,3583,0,0,0,0,3879,0,0,0,0,0,0,0,0,0,0,0,0,0,3740,3729,3724,3721,3718,3714,3716,3724,0,0,0,0,0,7662,0,0,0,7717,0,0,0,0,0,0,0,0,0,0,0,0,0,0,0,0,0,0,0,0,0,0,0,0,0,0,0,0,0,0,0,0,0,0,0,0,0,0,0,0,0,0,0,0,0,0,0,0,0,0,0,0,0,0,0,0,0,0,8569,0,8566,8558,8542,8533,8521,8512,8484,8468,8447,8434.001,8403.001,0,0,0,8351.001,8339.001,8320.001,8319.001,8329.001,8342.001,8360.001,8383,8380.001,8392.001,8383,0,0,0,0,9631,9627,0,0,0,0,0,0,0,0,0,0,0,0,0,0,0,0,0,0,0,0,0,0,0,0,0,0,0,0,0,0,0,0,0,0,0,0,0,0,0,9568,9552,9526,9514,9489,9474,9450,9427,9391,9383,9355,9324,9309,9303,9285,9269,9251,0,9191,9171,9154,9135,9128,9109,9091,9075,9060,9047,9032,9007,8991,8960,8933,8909,8888,8857,8843,8834,8819,8806,8799,8780,8766,8750,0,0,0,0,8630,8627,8611,8596,8581,8568,8545,8526,8507,8491,8478,8452,8435.001,8425.001,8400.001,8377.001,8360.001,8344.001,8321.001,8315.001,8298.001,8286,8261,8245.001,8221,8213,8189,8175,8159,8150,8125,8121,8109,0,0,0,0,0,0,0,0,0,0,0,0,0,0,0,0,0,0,0,0,0,0,0,0,0,0,0,0,0,0,0,0,0,0,0,0,0,0,0,0,0,0,0,0,0,0,0,0,0,0
4370,4379,4383,4389,4396,4403,4409,4420,4430,4440,4448,4454,4457,4460,4460,4462,4468,4478,4487,4498,4510,4515,4518,4520,4521,4527,4533,4543,4555,4564,4570,4574,4576,4577,4584,4589,4594,4603,4608,4613,4620,4627,4631,4643,4652,4658,4666,4675,4678,4681,4689,4697,4703,4706,4714,4721,4726,4732,4740,4744,4746,4743,4744,4745,4742,4745,4758,4768,4777,4787,4798,4805,4816,4825,4832,4837,4842,4845,4851,4860,4872,4878,4880,4887,4890,4900,4903,4916,4924,4932,4938,4947,4956,4961,4967,4973,4979,4982,4989,4992,4998,5005,5010,5023,5031,5039,5043,5051,5056,5062,5071,5076,5088,5094,5098,5104,5110,5117,5123,5130,5137,5146,5152,5160,5168,5178,5185,5190,5199,5204,5211,5214,5221,5225,5235,5243,5252,5262,5269,5275,5279,5286,5293,5301,5309,5316,5323,5327,5332,5339,5345,5352,5362,5370,5380,5387,5395,5400,5406,5410,5417,5420,5430,5436,5440,5447,5457,5457,5467,5475,5480,0,0,0,0,0,0,0,0,0,5671,0,5624,5601,5567,0,0,5551,5557,5570,5572,5578,5580,5590,5592,5599,5605,5612,5622,5630,5637,5645,5654,5659,5670,5674,5681,5688,5691,5697,5704,5703,5703,0,0,0,0,1760,1757,1755,1754,1753,1753,1753,1752,1753,1753,1753,1754,1755,1756,1756,1757,1757,1758,1759,1760,1760,1760,1760,1760,1760,1758,1758,1757,1758,1757,1756,1755,1755,1755,1755,1755,1755,1755,1755,1755,1755,1756,1757,1757,1757,1757,1757,1758,1758,1759,1760,1759,1760,1760,1761,1761,1762,1761,1761,1762,1763,1765,1767,1768,1769,1769,1768,1767,1766,1764,1766,1766,1765,1763,1765,1763,1761,1762,1756,1754,1749,1747,1738,1747,1752,1758,1760,1768,1765,1766,1771,1777,1784,1796,1811,1823,1830,1836,1839,1843,1845,1848,1851,1855,1857,1858,1855,1847,0,0,0,0,0,0,0,0,0,3595,3589,3573,3574,3573,3573,3573,3575,3582,0,0,0,3857,0,0,0,0,0,0,0,0,0,0,0,0,0,0,0,3728,3720,3718,3713,3709,3711,3718,0,0,0,0,0,0,0,0,0,7717,0,0,0,0,0,0,0,0,0,0,0,0,0,0,0,0,0,0,0,0,0,0,0,0,0,0,0,0,0,0,0,0,0,0,0,0,0,0,0,0,0,0,0,0,0,0,0,0,0,0,0,0,0,0,8530,0,0,0,8575,0,8568,8559,8545,8533,8520,8509,8488,8472,8449,8433.001,8404.001,8390.001,8370.001,8356.001,8342.001,8326.001,8314.001,8318.001,8328.001,8341.001,8362.001,8380.001,8377.001,8382.001,8371.001,0,0,0,9660,9633,0,0,0,0,0,0,0,0,0,0,0,0,0,0,0,0,0,0,0,0,0,0,0,0,0,0,0,0,0,0,0,0,0,0,0,0,0,0,0,0,9562,9552,9527,9519,9491,9476,9446,9428,9398,9385,9359,9332,9305,9299,9284,0,0,0,9194,9170,9154,9132,9120,9104,9091,9069,9049,9038,9018,8994,8981,8957,8935,8917,8898,8869,8850,8830,8810,8798,8782,8764,8746,8734,0,0,0,8653,8625,8620,8607,8595,8582,8569,8548,8529,8504,8487,8474,8445.001,8427.001,8418.001,8392.001,8373.001,8357.001,8341.001,8323.001,8320.001,8301.001,8288.001,8263,8248.001,8224,8214,8190,8176,8160,8151,8124,8119,8106,0,0,0,0,0,0,0,0,0,0,0,0,0,0,0,0,0,0,0,0,0,0,0,0,0,0,0,0,0,0,0,0,0,0,0,0,0,0,0,0,0,0,0,0,0,0,0,0,0,0
4382,4391,4395,4393,4405,4412,4418,4428,4440,4447,4456,4462,4467,4473,4474,4476,4483,4489,4495,4507,4518,4525,4530,4534,4535,4542,4546,4556,4567,4576,4582,4586,4588,4590,4595,4598,4607,4613,4619,4624,4631,4636,4643,4655,4664,4670,4677,4685,4688,4693,4701,4710,4713,4715,4723,4727,4731,4737,4747,4753,4754,4747,4744,4735,0,4727,4745,4757,4770,4785,4799,4807,4817,4828,4836,4838,4845,4849,4855,4863,4878,4883,4890,4894,4900,4903,4905,4914,4922,4931,4937,4948,4955,4962,4966,4971,4978,4981,4986,4991,4999,5003,5010,5019,5027,5037,5045,5052,5057,5061,5068,5073,5085,5091,5100,5106,5109,5112,5119,5125,5129,5137,5144,5154,5161,5173,5181,5187,5197,5205,5212,5214,5220,5225,5232,5240,5249,5259,5266,5273,5277,5284,5288,5298,5304,5313,5318,5321,5328,5334,5341,5349,5354,5362,5369,5378,5385,5391,5400,5407,5413,5419,5429,5435,5440,5444,5454,5455,5463,5470,5477,0,0,0,0,0,0,0,0,5689,5670,5643,0,0,0,0,0,5554,5558,5566,5570,5578,5582,5589,5593,5599,5603,5608,5618,5624,5634,5644,5654,5659,5667,5675,5678,5684,5689,5695,5699,5706,5711,5710,0,0,0,1767,1759,1757,1755,1754,1755,1754,1753,1754,1754,1754,1756,1758,1759,1760,1760,1761,1761,1762,1763,1762,1762,1762,1762,1760,1760,1760,1759,1759,1759,1757,1756,1756,1756,1757,1757,1756,1757,1756,1757,1758,1758,1759,1759,1759,1759,1760,1760,1760,1761,1762,1762,1763,1764,1764,1764,1763,1763,1763,1764,1765,1767,1768,1769,1770,1769,1767,1767,1767,1764,1767,1767,1770,1768,1766,1762,1760,1757,1752,1753,1752,1749,1744,1752,1754,1759,1763,1770,1767,1770,1772,1777,1783,1793,1806,1817,1828,1837,1841,1842,1846,1849,1851,1853,0,0,0,0,0,0,0,0,0,0,0,0,0,0,3580,3567,3573,3571,3572,3573,3575,3580,0,0,0,0,0,0,0,0,0,0,0,0,0,0,0,0,0,0,0,3731,3721,3720,3713,3710,3708,3712,0,0,0,0,0,0,0,0,0,0,0,0,0,0,0,0,0,0,0,7820,7830,0,0,0,0,0,0,0,0,0,0,0,0,0,0,0,0,0,0,0,0,0,0,0,0,0,0,0,0,0,0,0,0,0,0,0,0,0,0,0,0,0,0,0,0,0,8580,8577,8575,8572,8563,8554,8542,8525,8508,8497,8478,8462,8447,8431.001,8402.001,8386.001,8364.001,8350.001,8344.001,8331.001,8321.001,8328.001,8334.001,8336.001,8354.001,8363.001,8361.001,8364.001,0,0,0,0,9644,9623,9617,9605,9594,0,0,0,0,0,0,0,0,0,0,0,0,0,0,0,0,0,0,0,0,0,0,0,0,0,0,0,0,0,0,0,0,0,0,0,0,0,0,9539,9523,9507,9480,9460,9441,9416,9387,9375,9358,9326,9309,0,0,0,0,9231,9212,9182,9163,9141,9121,9101,9085,9055,9034,9026,9009,8989,8975,8953,8931,8910,8891,8868,8848,8823,8800,8792,8780,8764,8746,8735,8705,8692,8673,8653,8629,8621,8603,8594,8581,8566,8545,8528,8497,8480,8463,8442.001,8423.001,8411.001,8382.001,8361.001,8344.001,8332.001,8317.001,8317.001,8298.001,8284,8255.001,8240.001,8216,8206,8183,8166,8149,8136,8114,8107,8099,0,0,0,0,0,0,0,0,0,0,0,0,0,0,0,0,0,0,0,0,0,0,0,0,0,0,0,0,0,0,0,0,0,0,0,0,0,0,0,0,0,0,0,0,0,0,0,0,0,0
0,0,4404,4400,4411,4418,4427,4437,4450,4457,4465,4470,4473,4477,4479,4482,4488,4493,4501,4512,4524,4529,4536,4540,4545,4549,4557,4566,4576,4584,4590,4595,4598,4601,4608,4613,4621,4627,4634,4635,4641,4649,4654,4662,4674,4678,4683,4694,4698,4705,4716,4722,4727,4731,4736,4739,4745,4749,4758,4760,4763,4748,4737,0,0,0,0,4743,4765,4783,4802,4811,4822,4834,4843,4844,4850,4854,4859,4866,4880,4887,4892,4898,4904,4905,4910,4920,4928,4935,4940,4950,4956,4963,4966,4972,4978,4983,4989,4995,5003,5008,5015,5021,5032,5040,5046,5054,5059,5062,5070,5076,5084,5092,5099,5105,5109,5115,5117,5123,5130,5140,5147,5159,5167,5177,5183,5193,5196,5205,5212,5216,5219,5226,5231,5241,5249,5260,5264,5270,5273,5283,5286,5297,5303,5311,5314,5322,5326,5336,5340,5351,5353,5358,5360,5367,0,0,0,0,0,5408,5420,5428,5431,5429,5437,0,0,5454,0,0,0,0,0,0,0,0,0,5685,5670,5647,5620,5594,5568,0,5547,5565,5562,5568,5571,5576,5580,5584,5588,5594,5601,5605,5620,5622,5638,5643,5652,5657,5666,5668,5680,5679,5692,5696,5707,5709,5711,5714,0,0,0,0,1763,1759,1756,1756,1755,1755,1756,1757,1757,1758,1759,1760,1761,1761,1763,1763,1764,1764,1766,1765,1765,1764,1764,1762,1762,1761,1760,1760,1760,1759,1758,1758,1758,1758,1758,1758,1758,1758,1758,1760,1760,1761,1761,1761,1760,1761,1761,1761,1762,1763,1763,1764,1764,1764,1764,1765,1765,1765,1766,1768,1769,1770,1770,1772,1769,1769,1767,1767,1764,1765,1766,1767,1766,1763,1760,1754,1749,1745,1747,1750,1752,1750,1756,1758,1761,1764,1770,1770,1770,1775,1778,1785,1794,1809,1821,1831,1838,1843,1844,1848,1851,1853,0,0,0,0,0,0,0,0,0,0,0,0,0,0,0,0,3566,3571,3570,3571,3572,3573,3573,0,0,0,0,0,0,0,0,0,0,0,0,0,0,0,0,0,0,0,3731,3720,3716,3708,3706,3703,3707,0,0,0,0,0,0,0,0,0,0,0,0,0,0,0,0,0,0,7805,7824,7834,0,0,0,0,0,0,0,0,0,0,0,0,0,0,0,0,0,0,0,0,0,0,0,0,0,0,0,0,0,0,0,0,0,0,0,0,0,0,0,0,0,0,0,8535,0,8559,8570,8568,8569,8559,8552,8538,8524,8508,8499,8483,8468,8454,8438.001,8403.001,8384.001,8364.001,8348.001,8336.001,8334.001,8321.001,8325.001,8325.001,8331.001,8342.001,8354.001,8356.001,8366.001,0,0,0,0,9641,9625,9611,9607,0,0,0,0,0,0,0,0,0,0,0,0,0,0,0,0,0,0,0,0,0,0,0,0,0,0,0,0,0,0,0,0,0,0,0,0,0,0,0,9538,9520,9501,9472,9449,9428,9407,9381,9367,9351,9329,9304,0,9278,0,9246,9229,9212,9187,9162,0,9119,9094,9074,9053,9028,9021,9010,8990,8971,8954,8930,8907,8888,8874,8854,8831,8808,8796,8779,8759,8734,8720,8698,8683,8669,8650,8629,8609,8595,8585,8573,8557,8544,8525,8497,8483,8467,8439.001,8420.001,8403.001,8375.001,8354.001,8342.001,8324.001,8308.001,8303.001,8283,8271,8255.001,8236,8213,8202,8181,8160,8148,8133,8107,8095,0,0,0,0,0,0,0,0,0,0,0,0,0,0,0,0,0,0,0,0,0,0,0,0,0,0,0,0,0,0,0,0,0,0,0,0,0,0,0,0,0,0,0,0,0,0,0,0,0,0,0
0,0,0,0,4427,4439,4441,4446,4455,4459,4463,4470,4475,4479,4483,4486,4491,4495,4503,4514,4526,4530,4537,4542,4549,4554,4565,4575,4584,4590,4596,4599,4602,4606,4613,4619,4626,4634,4643,4643,4650,4661,4669,4674,4684,4688,4693,4700,4705,4712,4722,4728,4736,4742,4750,4755,4761,4764,4773,4775,4776,4756,0,0,0,0,0,0,0,4786,4810,4819,4829,4839,4847,4849,4857,4862,4868,4874,4888,4893,4899,4904,4910,4913,4916,4923,4932,4937,4944,4953,4961,4965,4969,4975,4982,4985,4993,4999,5006,5013,5019,5027,5038,5045,5053,5063,5068,5072,5079,5084,5091,5098,5105,5111,5116,5120,5121,5124,5131,5141,5149,5160,5169,5176,5181,5190,5197,5205,5212,5217,5220,5226,5231,5240,5249,5261,5266,5276,5277,5286,5289,5299,5303,5311,5315,5324,5327,5337,5343,5351,5351,5354,0,0,0,0,0,0,0,0,0,0,0,0,0,0,0,0,0,0,0,0,0,0,0,0,0,5679,5664,5642,5615,5587,0,0,5546,5558,5559,5563,5567,5569,5573,5580,5587,5591,5598,5605,5615,5625,5634,5637,5650,5655,5666,5666,5674,5677,5686,5692,5702,5708,5717,5716,5717,0,0,0,0,1763,1759,1759,1759,1759,1759,1760,1762,1763,1764,1765,1766,1767,1767,1768,1769,1768,1769,1769,1768,1767,1767,1765,1764,1763,1762,1761,1761,1760,1760,1760,1760,1760,1760,1759,1759,1760,1760,1762,1762,1763,1762,1762,1761,1762,1762,1763,1765,1765,1765,1765,1766,1766,1765,1766,1767,1767,1768,1770,1770,1771,1773,1773,1770,1770,1767,1765,1762,1761,1762,1764,1766,1764,1761,1757,1751,1748,1748,1752,1753,1750,1756,1757,1761,1762,1770,1769,1769,1773,1778,1783,1797,1810,1824,1833,1839,1844,1848,1849,1850,0,0,0,0,0,0,0,0,0,0,0,0,0,0,0,0,0,3562,3564,3566,3567,3565,3564,3562,0,0,0,0,0,0,0,0,0,0,0,0,0,0,0,0,0,0,0,3735,3723,3721,3712,3710,3707,3716,0,0,0,0,0,0,0,0,0,0,0,0,0,0,0,0,0,0,0,0,0,0,0,0,0,0,0,0,0,0,0,0,0,0,0,0,0,0,0,0,0,0,0,0,0,0,0,0,0,0,0,0,0,0,0,0,0,0,0,0,0,0,0,0,8530,8538,8547,8558,8559,8567,8560,8553,8537,8522,8502,8492,8477,8465,8448,8433.001,8403.001,8384.001,8362.001,8346.001,8334.001,8333.001,8325.001,8330.001,8332.001,8343.001,8352.001,8364.001,8369.001,8382.001,0,0,0,0,9645,9635,9624,9616,0,0,0,0,0,0,0,0,0,0,0,0,0,0,0,0,0,0,0,0,0,0,0,0,0,0,0,0,0,0,0,0,0,0,0,0,0,0,0,9551,9526,9499,9467,9438,9416,9399,9375,9360,9345,9329,9302,9289,9277,9259,9243,9228,9214,9187,9160,9143,9116,9093,9071,9054,9027,9014,9001,8985,8964,8951,8933,8913,8898,8880,8861,8844,8820,8798,8779,8759,8727,8711,8693,8678,8663,8648,8636,8613,8604,8592,8579,8560,8545,8526,8496,8484,8468,8441.001,8420.001,8398.001,8368.001,8349.001,8338.001,8321.001,8308.001,8298.001,8280,8262,8243.001,8223,8201,8190,8175,8159,8150,8133,8106,8092,8080,0,0,0,0,0,0,0,0,0,0,0,0,0,0,0,0,0,0,0,0,0,0,0,0,0,0,0,0,0,0,0,0,0,0,0,0,0,0,0,0,0,0,0,0,0,0,0,0,0,0
0,0,0,0,4423,4444,4442,4449,4453,4457,4461,4470,4476,4482,4485,4488,4490,4491,4499,4511,4519,4525,4534,4542,4551,4560,4570,4581,4586,4592,4597,4600,4604,4611,4620,4626,4633,4640,4648,4647,4653,4663,4671,4675,4687,4695,4703,4712,4717,4723,4729,4733,4739,4746,4753,4759,4766,4770,4776,4779,4777,0,0,0,0,0,0,0,0,4781,4814,4826,4837,4846,4852,4855,4863,4869,4874,4881,4890,4897,4901,4908,4912,4920,4926,4932,4938,4949,4955,4961,4969,4977,4976,4980,4987,4993,4998,5006,5011,5017,5022,5031,5044,5054,5062,5075,5081,5082,5085,5090,5093,5096,5104,5116,5120,5123,5127,5132,5135,5148,5158,5168,5176,5184,5187,5194,5203,5208,5214,5221,5225,5232,5236,5245,5252,5261,5268,5278,5284,5293,5299,5308,5313,5318,5323,5332,5337,5346,5353,5359,5355,0,0,0,0,0,0,0,0,0,0,0,0,0,0,0,0,0,0,0,0,0,0,0,0,0,0,5688,5671,5649,5630,5596,0,0,5551,5554,5561,5561,5566,5569,5573,5578,5584,5588,5597,5606,5615,5624,5634,5641,5650,5651,5663,5666,5673,5680,5693,5697,5710,5710,5718,5718,5721,0,0,0,0,0,1765,1763,1762,1763,1764,1766,1768,1769,1770,1770,1770,1771,1771,1772,1772,1772,1772,1771,1771,1770,1770,1768,1767,1765,1764,1763,1763,1761,1761,1762,1762,1762,1762,1760,1759,1760,1761,1762,1763,1764,1764,1764,1764,1765,1765,1766,1768,1768,1768,1768,1768,1768,1767,1769,1769,1769,1770,1772,1772,1774,1774,1776,1773,1774,1771,1768,1762,1762,1765,1766,1770,1766,1762,1757,1753,1749,1750,1752,1752,1752,1756,1758,1759,1763,1764,1766,1766,1771,1775,1788,1802,1816,1828,1836,1842,1845,1847,1850,0,0,0,0,0,6811,0,0,0,0,0,0,0,0,0,0,0,0,3555,3557,3562,3563,3561,3559,3554,0,0,0,0,0,0,0,0,0,0,0,0,0,0,0,0,0,0,0,3723,3716,3713,3709,3709,3709,3722,0,0,0,0,7663,0,0,0,0,0,0,0,0,0,0,0,0,0,0,0,0,0,0,0,0,0,0,0,0,0,0,0,0,0,0,0,0,0,0,0,0,0,0,0,0,0,0,0,0,0,0,0,0,0,0,0,0,0,0,0,0,0,0,0,0,8541,8546,8558,8562,8561,8554,8548,8534,8516,8500,8487,8475,8461,8446.001,8428.001,8398.001,8380.001,8360.001,8343.001,8330.001,8330.001,8326.001,8330.001,8334.001,0,8357.001,8361.001,8371.001,8375.001,0,0,0,0,9634,9625,9613,9607,0,0,0,0,0,0,0,0,0,0,0,0,0,0,0,0,0,0,0,0,0,0,0,0,0,0,0,0,0,0,0,0,0,0,0,0,0,0,0,9534,9519,0,9470,9436,9424,9395,9378,9358,9344,0,0,0,0,9255,9238,9223,9209,9183,9157,9140,9116,9097,9074,9064,9036,9020,9000,8986,8954,8942,8926,8909,8892,8885,8861,8844,8819,8799,8772,8754,8723,8708,8686,8669,8653,8640,8625,8604,8592,8580,8567,8550,8539,8524,8497,8483,8468,8442.001,8423.001,8401.001,8372.001,8350.001,8342.001,8325.001,8310.001,8302.001,8283,8262,8244.001,8219,8204,8187,8173,8156,8148,8124,8105,8089,0,0,0,0,0,0,0,0,0,0,0,0,0,0,0,0,0,0,0,0,0,0,0,0,0,0,0,0,0,0,0,0,0,0,0,0,0,0,0,0,0,0,0,0,0,0,0,0,0,0,0
0,0,0,0,4418,4437,4437,4443,4449,4454,4459,4468,4475,4480,4487,4491,4495,4495,4503,4513,4522,4526,4536,4547,4556,4564,4575,4584,4588,4596,4602,4605,4608,4612,4618,4624,4633,4640,4648,4649,4656,4663,4671,4677,4688,4696,4705,4715,4721,4729,4734,4738,4746,4753,4759,4766,4771,4771,4776,4778,4775,0,0,0,5248,5242,5249,0,0,0,4817,4831,4841,4851,4856,4862,4870,4876,4880,4887,4894,4899,4906,4914,4919,4926,4934,4940,4942,4951,4956,4961,4968,4980,4982,4989,4998,5003,5007,5015,5021,5027,5031,5040,5051,5059,5068,5080,5085,5088,5093,5096,5098,5103,5110,5121,5126,5131,5135,5139,5144,5154,5164,5172,5180,5187,5194,5199,5208,5216,5221,5229,5236,5243,5247,5257,5265,5271,5277,5287,5291,5298,5303,5309,5314,5320,5324,5332,5340,5351,5359,5364,5360,0,0,0,0,0,0,0,0,0,0,0,0,6076,6072,6071,6065,6055,6045,0,0,0,0,0,0,0,0,5692,5671,5648,5638,5592,0,5549,5547,5548,5558,5559,5562,5567,5572,5577,5582,5591,5595,5605,5612,5624,5632,5642,5648,5652,5660,5665,5675,5679,5691,5700,5710,5713,5718,5719,5724,5726,0,0,0,0,0,0,1766,1766,1769,1771,1772,1773,1775,1774,1774,1774,1774,1776,1775,1773,1774,1774,1773,1772,1772,1770,1769,1767,1766,1765,1764,1762,1762,1764,1763,1763,1763,1762,1761,1762,1763,1764,1765,1767,1767,1767,1767,1768,1768,1769,1771,1771,1771,1771,1771,1771,1771,1772,1772,1773,1773,1775,1776,1776,1777,1777,1775,1774,1772,1768,1762,1761,1762,1763,1764,1764,1757,1751,1749,1750,1748,1751,1753,1757,1759,1759,1761,1762,1765,1765,1766,1769,1774,1784,1801,1821,1831,1838,1843,1845,1847,1847,0,0,0,0,0,0,0,0,0,0,0,0,0,0,0,0,0,0,3544,3542,3547,3548,3542,3534,3523,0,0,0,0,0,0,0,0,0,0,0,0,0,0,0,0,0,0,0,3723,3716,3716,3711,3711,3712,3730,0,0,0,0,0,0,0,0,0,0,0,0,0,0,0,0,0,7794,0,0,0,0,0,0,0,0,0,0,0,0,0,0,0,0,0,0,0,0,0,0,0,0,0,0,0,0,0,0,0,0,0,0,0,0,0,0,0,0,0,0,0,0,0,0,0,8540,8552,8551,8553,8551,8545,8539,8527,8513,8502,8492,8476,8464,8449,8432.001,8404.001,8388.001,8370.001,8350.001,8332.001,8328.001,8323.001,8322.001,8329.001,8340.001,8354.001,8357.001,8375.001,8377.001,8384.001,0,0,0,9640,9626,9616,9615,0,0,0,0,0,0,0,0,0,0,0,0,0,0,0,0,0,0,0,0,0,0,0,0,0,0,0,0,0,0,0,0,0,0,0,0,0,0,9548,9521,9509,9487,9464,9430,9425,9394,9376,9361,9348,9320,0,0,0,9247,9232,9214,9203,9185,9157,9138,9115,9093,9064,9053,9029,9010,8989,8979,8949,8932,8917,8903,8883,8874,8858,8846,8825,8804,8777,8755,8722,8699,8674,8660,8646,8631,8621,8608,8593,8583,8571,8557,8539,8521,8489,8478,8462,8442.001,8427.001,8408.001,8380.001,8352.001,8341.001,8324.001,8305.001,8294.001,8272,8251.001,8230,8211,8195,8182,8167,8150,8142,8117,8102,8087,8079,0,0,0,0,0,0,0,0,0,0,0,0,0,0,0,0,0,0,0,0,0,0,0,0,0,0,0,0,0,0,0,0,0,0,0,0,0,0,0,0,0,0,0,0,0,0,0,0,0,0
0,0,0,0,4413,4430,4433,4440,4444,4451,4457,4468,4473,4478,4484,4489,4494,4496,4507,4514,4522,4523,4533,4541,4556,4562,4574,4583,4588,4591,4599,4603,4605,4609,4617,4622,4631,4639,4647,4650,4658,4664,4669,4674,4686,4691,4701,4714,4720,4727,4733,4739,4745,4754,4761,4770,4775,4776,4778,4782,4777,0,0,0,5237,5234,5239,0,0,0,4813,4831,4841,4849,4855,4865,4870,4878,4885,4891,4895,4903,4907,4914,4919,4926,4933,4941,4945,4953,4959,4962,4972,4978,4984,4993,5001,5005,5013,5020,5025,5030,5036,5044,5054,5060,5070,5082,5086,5093,5098,5100,5101,5107,5112,5122,5128,5136,5140,5144,5152,5164,5174,5182,5190,5195,5200,5204,5212,5218,5223,5231,5240,5247,5253,5263,5269,5273,5281,5290,5295,5304,5309,5314,5319,5325,5330,5337,5345,5356,5366,5371,5370,0,0,0,0,0,6003,6007,6008,6019,0,0,6057,6060,6056,6054,6046,6029,6015,5984,0,0,0,0,0,0,0,5692,5665,5640,5627,5592,5568,5553,5551,5556,5557,5557,5561,5566,5568,5575,5580,5590,5593,5604,5614,5623,5631,5638,5644,5650,5657,5663,5675,5684,5693,5703,5709,5715,5719,5725,5728,5736,5739,0,0,0,0,0,0,1773,1776,1777,1778,1778,1778,1777,1776,1777,1777,1778,1778,1777,1777,1777,1776,1776,1776,1773,1771,1770,1768,1767,1766,1765,1766,1767,1765,1764,1764,1763,1762,1764,1764,1766,1767,1769,1768,1769,1768,1769,1770,1771,1773,1774,1774,1774,1774,1774,1775,1776,1775,1775,1776,1777,1777,1779,1780,1781,1779,1777,1774,1768,1764,1763,1763,1762,1762,1761,1757,1753,1751,1751,1750,1751,1751,1753,1756,1763,1761,1763,1764,1764,1762,1767,1773,1784,1804,1825,1833,1841,1842,1842,1843,0,0,0,0,3771,3773,0,0,0,0,0,0,0,0,0,0,0,0,0,0,3504,3515,3522,3512,3504,3495,0,0,0,0,0,0,0,0,0,0,0,0,0,0,0,0,0,0,0,3716,3711,3708,3706,3707,3710,0,0,0,0,0,0,0,0,0,0,0,0,0,0,0,0,0,0,0,0,0,0,0,0,0,0,0,0,0,0,0,0,0,0,0,0,0,0,0,0,0,0,0,0,0,0,0,0,0,0,0,0,0,0,0,0,0,0,0,0,0,0,0,0,0,0,0,8528,8539,8549,8550,8543,8537,8525,8513,8505,8497,8484,8474,8458,8436.001,8407.001,8387.001,8374.001,8349.001,8327.001,8321.001,8310.001,8306.001,8317.001,8337.001,8350.001,8363.001,8380.001,8381.001,8383,0,0,0,9641,9631,9617,9611,0,0,0,0,0,0,0,0,0,0,0,0,0,0,0,0,0,0,0,0,0,0,0,0,0,0,0,0,0,0,0,0,0,0,0,0,0,0,9542,9523,9510,9488,9458,9432,9422,9395,9377,9365,9348,9324,9302,9277,9260,9240,9221,9208,9197,9181,9156,9144,9122,9099,9071,9059,9033,9011,8986,8979,8950,8927,8915,8902,8874,8863,8850,8838,8824,8803,8775,8744,8717,8690,8671,8658,8643,8623,8615,8599,8590,8579,8565,8548,8535,8511,8485,8474,8461,8434.001,8419.001,8397.001,8374.001,8352.001,8340.001,8326.001,8309.001,8293.001,8274,8255.001,8234,8215,8201,8189,8176,8162,8151,8131,8112,8100,8085,0,0,0,0,0,0,0,0,0,0,0,0,0,0,0,0,0,0,0,0,0,0,0,0,0,0,0,0,0,0,0,0,0,0,0,0,0,0,0,0,0,0,0,0,0,0,0,0,0,0
0,0,0,0,4420,4433,4434,4440,4441,4445,4455,4466,4470,4477,4488,4490,4493,4498,4507,4511,4517,4523,4535,4544,4558,4567,4579,4587,4590,4594,4599,4604,4607,4612,4618,4625,4631,4639,4647,4654,4660,4666,4672,4677,4684,4693,4703,4713,4721,4727,4731,4737,4744,4753,4762,4771,4775,4776,4777,4780,4776,0,0,0,0,5236,0,0,0,0,4814,4832,4838,4847,4853,4864,4869,4878,4884,4891,4892,4902,4907,4915,4921,4928,4936,4942,4948,4955,4963,4966,4976,4982,4988,4995,5004,5005,5015,5022,5028,5032,5039,5045,5055,5060,5071,5082,5089,5096,5102,5103,5105,5110,5116,5125,5131,5141,5146,5149,5160,5169,5179,5185,5193,5197,5201,5202,5211,5216,5222,5231,5244,5252,5259,5267,5273,5276,5287,5294,5303,5310,5315,5317,5324,5326,5331,5338,5348,5353,5366,5374,5381,5377,0,0,0,0,0,6000,6006,6019,6034,0,6063,6059,6054,6053,6045,6029,6014,5986,0,0,0,0,0,0,0,5688,5665,5643,0,0,0,0,5534,5537,5546,5550,5557,5561,5566,5573,5579,5588,5594,5605,5608,5623,5630,5636,5643,5648,5655,5661,5674,5683,5691,5697,5708,5712,5719,5724,5728,5735,5743,5749,5754,0,0,0,0,0,0,1779,1782,1782,1783,1783,1782,1783,1783,1783,1782,1781,1779,1779,1778,1778,1778,1776,1774,1772,1770,1769,1769,1767,1768,1769,1768,1767,1767,1766,1765,1767,1768,1769,1770,1772,1771,1772,1772,1773,1774,1776,1778,1779,1778,1778,1778,1778,1779,1779,1779,1779,1779,1780,1781,1782,1782,1782,1783,1782,1782,1777,1773,1768,1767,1762,1759,1758,1755,1757,1752,1754,1752,1753,1753,1755,1756,1759,1760,1761,1762,1762,1763,1766,1768,1777,1794,1820,1834,1838,1841,1840,1837,0,0,0,3770,3772,3773,3780,0,0,0,0,0,0,0,0,0,0,0,0,0,0,3467,3477,3462,3458,3445,0,3430,0,0,0,0,0,0,0,0,0,0,0,0,0,0,0,0,3721,3711,3709,3707,3705,3707,3715,0,0,0,0,0,0,0,0,0,0,0,0,0,7743,7743,0,7779,0,7812,0,0,0,0,0,0,0,0,0,0,0,0,0,0,0,0,0,0,0,0,0,0,0,0,0,0,0,0,0,0,0,0,0,0,0,0,0,0,0,0,0,0,0,0,0,0,0,0,0,8544,8554,8551,8544,8533,8523,8509,8503,8495,8482,8473,8457,8433.001,8406.001,8385.001,8373.001,8348.001,8328.001,8316.001,8309.001,8303.001,8318.001,8337.001,8355.001,8363.001,8383,8381.001,0,0,0,0,9645,9630,9616,9602,0,0,0,0,0,0,0,0,0,0,0,0,0,0,0,0,0,0,0,0,0,0,0,0,0,0,0,0,0,0,0,0,0,0,0,0,0,0,9538,9515,9501,9473,9445,9426,9420,9396,9385,9371,9355,9330,9312,9277,9265,9240,9224,9212,9203,9180,9154,9138,9119,9100,9076,9064,9042,9019,8990,8980,8947,8918,8904,8900,8874,8865,8852,8840,8818,8801,8771,8746,8720,8694,8670,8662,8646,8628,8618,8605,8588,8575,8562,8541,8521,8502,8474,8458,8442.001,8428.001,8410.001,8401.001,8378.001,8355.001,8336.001,8326.001,8308.001,8293.001,8277,8263,8235,8216,8200,8187,8170,8162,8145,8130,8117,8111,8091,0,0,0,0,0,0,0,0,0,0,0,0,0,0,0,0,0,0,0,0,0,0,0,0,0,0,0,0,0,0,0,0,0,0,0,0,0,0,0,0,0,0,0,0,0,0,0,0,0,0
0,0,0,0,4417,4420,4425,4432,4435,4438,4454,4462,4465,4471,4484,4486,4494,4500,4513,4515,4523,4528,4542,4546,4560,4566,4575,4579,4585,4590,4597,4604,4608,4611,4616,4622,4629,4634,4642,4652,4659,4663,4669,4675,4682,4689,4698,4710,4718,4726,4733,4740,4745,4755,4760,4769,4774,4775,4775,4779,4776,4757,0,0,0,0,0,0,0,0,4814,4830,4839,4845,4851,4862,4867,4875,4882,4890,4893,4902,4908,4916,4921,4929,4938,4945,4950,4957,4962,4966,4977,4984,4989,4997,5002,5006,5016,5024,5030,5034,5040,5044,5056,5061,5070,5079,5085,5089,5096,5099,5103,5110,5117,5125,5132,5141,5148,5152,5162,5169,5175,5182,5190,5194,5200,5203,5212,5217,5223,5231,5241,5250,5256,5264,5270,5276,5283,5290,5299,5305,5310,5313,5320,5324,5330,5337,5349,5355,5363,5373,5381,5380,5383,0,0,0,0,0,0,0,0,0,6053,6051,6047,6046,6036,6023,6007,0,0,0,0,0,0,0,0,0,0,5636,0,0,5562,0,5528,5537,5545,5551,5557,5563,5568,5576,5585,5591,5600,5609,5615,5623,5628,5636,5643,5649,5656,5666,5678,5684,5691,5698,5705,5712,5722,5727,5732,5737,5746,5751,5755,5762,0,0,0,0,0,0,0,0,1790,1787,1786,1786,1787,1787,1787,1784,1783,1783,1781,1781,1780,1779,1778,1776,1774,1773,1772,1771,1771,1772,1771,1770,1771,1771,1770,1772,1772,1774,1774,1775,1775,1776,1776,1778,1777,1779,1780,1780,1780,1782,1783,1783,1783,1783,1783,1782,1781,1782,1783,1784,1784,1784,1785,1784,1785,1781,1774,1770,1766,1759,1755,1756,1753,1752,1752,1752,1751,1751,1750,1753,1755,1758,1760,1762,1763,1763,1764,1766,1770,1779,1796,1818,1830,1835,1837,1834,1827,0,0,0,3765,3770,3768,3772,3768,0,0,0,3627,3614,3604,3588,3588,0,0,0,0,0,0,0,3451,3448,3436,3429,3426,3423,3424,3427,0,0,0,0,0,0,0,0,0,0,0,0,0,3717,3708,3705,3704,3702,3702,3710,3748,0,0,0,0,0,0,0,0,0,0,0,7728,7728,7737,0,0,0,0,0,0,0,0,0,0,0,0,0,0,0,0,0,0,0,0,0,0,0,0,0,0,0,0,0,0,0,0,0,0,0,0,0,0,0,0,0,0,0,0,0,0,0,0,0,0,0,0,8547,8561,8559,8554,8548,8532,8521,8510,8499,8486,8474,8461,8447,8424.001,8398.001,8379.001,8368.001,8343.001,8328.001,8317.001,8301.001,8297.001,8310.001,8326.001,8341.001,8357.001,8377.001,8376.001,8386.001,0,0,0,0,9623,9601,9590,0,0,0,0,0,0,0,0,0,0,0,0,0,0,0,0,0,0,0,0,0,0,0,0,0,0,0,0,0,0,0,0,0,0,0,0,0,0,9531,9511,9497,9473,9447,9430,9421,9401,9386,9374,9362,9341,9323,9295,9270,9248,0,9208,0,9178,0,9132,9115,9099,9073,9056,9036,9017,8980,8966,8935,8909,8892,8886,8861,8861,8850,8829,8812,8796,8757,8729,8713,8691,8677,8670,8655,8633,8620,8596,8576,8562,8550,8534,8518,8490,0,8452,8434.001,8416.001,0,8396.001,8375.001,8351.001,8331.001,8316.001,8296.001,8279,8263,8252.001,8232,8212,8197,8187,8170,8158,8143,8126,8115,8111,8093,0,0,0,0,0,0,0,0,0,0,0,0,0,0,0,0,0,0,0,0,0,0,0,0,0,0,0,0,0,0,0,0,0,0,0,0,0,0,0,0,0,0,0,0,0,0,0,0,0,0
0,0,0,0,4423,4420,4427,4429,4436,4442,4457,4463,4467,4470,4483,4485,4492,4499,4513,4513,4522,4530,4542,4547,4557,4559,4568,4572,4581,4589,4595,4598,4605,4607,4610,4622,4630,4634,4642,4651,4657,4662,4667,4673,4678,4682,4691,4703,4711,4722,4728,4737,4743,4754,4759,4768,4772,4775,4775,4783,4781,0,0,0,0,0,0,0,0,0,4809,4824,4834,4840,4847,4861,4868,4876,4885,4891,4892,4899,4906,4912,4919,4925,4934,4940,4948,4953,4958,4964,4973,4978,4985,4995,5000,5005,5017,5023,5027,5031,5036,5040,5054,5058,5069,5079,5084,5088,5097,5102,5105,5113,5120,5126,5131,5142,5146,5149,5161,5167,5171,5180,5187,5191,5198,5201,5208,5216,5220,5230,5239,5248,5252,5260,5265,5274,5280,5291,5300,5305,5308,5310,5315,5320,5326,5333,5346,5352,5358,5370,5381,5382,5389,0,0,0,0,0,0,0,0,0,0,6051,6044,6046,6034,6022,6008,5984,0,0,0,0,0,0,5714,5685,0,5630,0,0,5563,5548,5527,5541,5545,5549,5555,5560,5563,5574,5580,5591,5601,5607,5614,5618,5626,5631,5640,5648,5654,5667,5669,5679,5685,5694,5700,5708,5717,5722,5731,5736,5744,5752,5761,5766,5771,0,0,0,0,0,0,0,0,1793,1791,1791,1792,1791,1791,1788,1788,1785,1783,1783,1783,1781,1780,1779,1777,1776,1775,1774,1774,1774,1773,1773,1774,1775,1775,1778,1778,1779,1778,1778,1777,1778,1777,1778,1778,1779,1780,1781,1781,1783,1784,1785,1786,1786,1786,1785,1785,1785,1787,1786,1785,1785,1785,1785,1786,1784,1778,1771,1766,1758,1751,1750,1747,1748,1748,1750,1750,1750,1750,1753,1756,1757,1759,1761,1763,1762,1765,1767,1770,1777,1791,1803,1816,1824,1828,1819,0,0,0,3768,3767,3770,3771,3771,3763,3716,3668,3643,3641,3630,3618,3603,3602,3601,3602,0,0,0,0,0,3424,0,3418,3419,3421,3418,3425,3426,0,0,0,0,0,0,0,0,0,0,0,0,3734,3731,3715,3711,3707,3706,3702,3711,0,0,0,0,0,0,0,0,0,0,0,0,7735,7733,7741,0,0,0,0,0,0,0,0,0,0,0,0,0,0,0,0,0,0,0,0,0,0,0,0,0,0,0,0,0,0,0,0,0,0,0,0,0,0,0,0,0,0,0,0,0,0,0,0,0,0,0,0,8557,8563,8555,8557,8545,8527,8518,8510,8493,8481,8468,8455,8438.001,8422.001,8399.001,8381.001,8364.001,8340.001,8319.001,8307.001,8288.001,8289.001,8299.001,8319.001,8333.001,8358.001,8376.001,8384.001,0,0,0,0,9646,9630,9605,9597,0,0,0,0,0,0,0,0,0,0,0,0,0,0,0,0,0,0,0,0,0,0,0,0,0,0,0,0,0,0,0,0,0,0,0,0,0,9557,9529,9511,9489,9466,9440,9427,9411,9396,9380,9377,9363,9352,9333,9313,9278,9260,9229,9210,9194,9176,9145,9126,9103,9089,9066,9045,9023,9008,8970,8953,8929,8907,8888,8884,8866,8863,8853,8837,8817,8799,8766,8729,8714,8687,8673,8659,8651,8621,8614,8588,8577,8561,8549,8528,8510,8475,0,8438.001,8417.001,8404.001,8393.001,8381.001,8363.001,8349.001,8330.001,8319.001,8304.001,8282,8267,8252.001,8234,8215,8201,8189,8173,8161,8145,8132,8120,8111,8089,0,0,0,0,0,0,0,0,0,0,0,0,0,0,0,0,0,0,0,0,0,0,0,0,0,0,0,0,0,0,0,0,0,0,0,0,0,0,0,0,0,0,0,0,0,0,0,0,0,0
0,0,0,0,4425,4422,4426,4429,4436,4442,4456,4463,4467,4469,4479,4485,4490,4501,4513,4513,4520,4529,4539,4543,4555,4558,4565,4570,4579,4587,4593,4600,4608,4610,4612,4625,4630,4634,4644,4657,4664,4669,4670,4671,4674,4679,4686,4699,4706,4716,4720,4731,4736,4750,4755,4766,4772,4778,4779,4788,4787,0,0,0,0,0,0,0,0,0,4812,4827,4835,4840,4848,4860,4864,4872,4881,4886,4891,4901,4905,4912,4921,4925,4931,4940,4947,4952,4958,4964,4973,4978,4984,4992,4997,5003,5013,5018,5024,5032,5036,5039,5052,5056,5065,5076,5083,5087,5096,5101,5105,5113,5120,5127,5134,5142,5145,5150,5160,5166,5168,5178,5185,5190,5197,5202,5210,5215,5221,5228,5237,5245,5249,5256,5260,5270,5278,5289,5299,5303,5306,5306,5314,5319,5326,5335,5348,5351,5358,5374,5387,5393,5407,5413,0,0,0,0,0,0,0,0,0,0,6043,6042,6031,6016,5998,0,0,0,0,0,0,0,0,0,0,0,0,0,0,5548,5528,5541,5546,5548,5553,5558,5563,5574,5582,5593,5600,5604,5611,5616,5625,5633,5641,5650,5656,5665,5669,5679,5680,5690,5696,5706,5716,5723,5730,5734,5742,5748,5759,5760,5767,5775,5786,5793,5808,0,0,0,0,0,0,1795,1797,1795,1796,1793,1794,1790,1788,1788,1787,1785,1783,1782,1780,1779,1779,1779,1779,1779,1778,1778,1779,1780,1780,1783,1783,1783,1782,1780,1779,1779,1778,1778,1778,1779,1780,1781,1782,1784,1784,1785,1787,1787,1786,1786,1786,1786,1788,1788,1788,1788,1789,1786,1787,1786,1780,1771,1766,1757,1750,1746,1746,1745,1745,1747,1749,1749,1750,1751,1755,1756,1761,1762,1763,1761,1764,1767,1770,1774,1786,1794,1798,1800,1801,0,0,0,3767,3764,3763,3764,3765,3764,3753,3714,3671,3648,3645,3635,3620,3603,3599,3601,3602,3602,3571,3515,3466,3429,3414,0,3410,3415,3420,3418,3422,3420,3419,0,3406,0,0,0,0,0,0,0,0,0,0,3743,3722,3714,3710,3706,3704,3712,0,0,0,0,0,0,0,0,0,0,0,0,7736,7743,7748,0,0,0,0,0,0,0,0,0,0,0,0,0,0,0,0,0,0,0,0,0,0,0,0,0,0,0,0,0,0,0,0,0,0,0,0,0,0,0,0,0,0,0,0,0,0,0,0,0,0,0,8513,8542,8556,8553,8560,8548,8531,8520,8508,8487,8472,8462,8449,8431.001,8417.001,8393.001,8371.001,8350.001,8330.001,8314.001,8308.001,8296.001,8301.001,8307.001,8325.001,0,8358.001,8368.001,8377.001,0,0,0,0,0,9617,9596,0,0,0,0,0,0,0,0,0,0,0,0,0,0,0,0,0,0,0,0,0,0,0,0,0,0,0,0,0,0,0,0,0,0,0,0,0,0,9552,9529,9505,9479,9456,9429,9417,9403,9392,9376,9370,9354,9344,9330,9311,9280,9262,9230,9204,9190,9166,0,9121,9103,9087,9066,9046,9028,9009,8978,8957,8927,8906,8886,8874,8853,8849,8836,8815,8795,8778,8758,8731,8717,8695,8677,8657,8643,8620,8610,8585,8576,8559,8542,8517,8501,8473,8463,8445.001,8424.001,8409.001,8392.001,8371.001,8349.001,8343.001,8325.001,8315.001,8304.001,8286,8267,8251.001,8237,8214,8199,8191,8181,8166,8148,8132,8118,8101,8079,8056,0,8022,0,7979,0,0,0,0,0,0,0,7866,0,0,0,0,0,0,0,0,0,0,0,0,0,0,0,0,0,0,0,0,0,0,0,0,0,0,0,0,0,0,0,0,0,0,0,0,0
0,0,0,0,0,4426,4428,4428,4437,4441,4453,4462,4468,4471,4481,4489,4490,4501,4511,4516,4523,4532,4540,4544,4552,4557,4564,4573,4581,4591,4594,4601,4607,4611,4612,4626,4629,4633,4639,4652,4656,4664,4664,4672,4675,4683,4690,4703,4710,4720,4723,4733,4742,4752,4758,4767,4772,4778,4779,4786,4787,0,0,0,0,0,0,0,0,0,4821,4831,4837,4843,4850,4856,4861,4869,4877,4881,4890,4899,4901,4909,4919,4923,4929,4940,4948,4952,4957,4964,4972,4978,4982,4989,4995,5002,5009,5016,5022,5030,5034,5040,5055,5061,5067,5077,5082,5084,5091,5098,5101,5110,5119,5125,5131,5137,5141,5147,5155,5162,5167,5176,5184,5187,5195,5200,5209,5214,5223,5230,5238,5245,5249,5254,5258,5268,5276,5286,5296,5303,5307,5307,5317,5322,5330,5337,5351,5355,5363,5375,5391,5394,5408,5411,0,0,0,0,0,0,0,0,0,0,0,0,6020,0,0,0,0,0,0,0,0,0,0,0,0,5638,0,0,0,0,5514,5529,5541,5545,5551,5559,5563,5571,5583,5591,5594,5601,5608,5612,5621,5632,5642,5650,5653,5662,5663,5672,5677,5688,5694,5702,5711,5719,5726,5730,5741,5747,5757,5766,5770,5781,5786,5798,5806,5812,0,0,0,0,0,0,0,0,0,1794,1795,1791,1791,1789,1788,1787,1786,1785,1783,1782,1782,1782,1781,1783,1783,1783,1783,1783,1783,1783,1783,1783,1782,1782,1781,1780,1779,1779,1779,1780,1781,1782,1783,1785,1784,1786,1786,1787,1787,1788,1788,1789,1790,1790,1789,1790,1790,1786,1783,1782,1775,1767,1763,1757,1749,1745,1743,1742,1745,1746,1748,1749,1751,1752,1756,1757,1760,1761,1760,1759,1762,1764,1770,1774,1780,1784,1783,1780,1777,0,0,0,3769,3762,3761,3760,3761,3755,3745,3712,3673,3648,3646,3637,0,0,0,0,3608,3605,3578,3544,0,0,0,3422,3415,3414,3415,3413,3415,3414,0,0,0,0,0,0,0,0,0,0,0,0,0,3751,3727,3716,3709,3709,3706,3714,0,0,0,0,0,0,0,0,0,0,0,0,0,0,0,0,0,0,0,0,0,0,0,0,0,0,0,0,0,0,0,0,0,0,0,0,0,0,0,0,0,0,0,0,0,0,0,0,0,0,0,0,0,0,0,0,0,0,0,0,0,0,0,0,0,0,0,8545,8554,8550,8551,8540,8527,8515,8503,8485,8471,8459,8443.001,8421.001,8408.001,8385.001,8362.001,8342.001,8331.001,8317.001,8308.001,8303.001,8306.001,0,0,8342.001,8359.001,8366.001,8372.001,8373.001,0,0,0,0,9605,9590,0,0,0,0,0,0,0,0,0,0,0,0,0,0,0,0,0,0,0,0,0,0,0,0,0,0,0,0,0,0,0,0,0,0,0,0,0,0,9558,9533,9510,9477,9452,9427,9411,9393,9385,9374,9360,9338,9324,9308,9284,9257,9248,9226,0,9188,9165,9141,9118,9104,9088,9067,9042,9023,9004,8979,8957,8930,8916,8891,8876,8860,8851,8830,8816,8792,8769,8748,8725,8702,8688,8674,8652,8642,8623,8610,8582,8569,8554,8541,8520,8504,8482,8465,8441.001,8419.001,8408.001,8390.001,8372.001,8355.001,8345.001,8325.001,8308.001,8295.001,8278,8260,8244.001,8236,8212,8200,8188,8175,8154,8138,8116,8108,8096,8078,8052,8037,8014,7984,7974,7965,7958,7943,0,0,0,7884,7864,7846,7825,0,0,0,0,0,0,0,0,0,0,0,0,0,0,0,0,0,0,0,0,0,0,0,0,0,0,0,0,0,0,0,0,0,0,0
0,0,0,0,0,0,4419,4422,4430,4441,4451,4458,4465,4468,4477,4485,4488,4498,4512,4517,4525,4533,4539,4541,4547,4550,4557,4565,4573,4582,4586,4593,4600,4609,4613,4626,4632,4635,4641,4650,4656,4660,4660,4666,4671,4676,4685,4699,4707,4716,4719,4730,4739,4748,4754,4765,4767,4775,4777,4785,4786,0,0,0,0,0,0,0,0,0,4824,4832,4840,4844,4852,4857,4862,4869,4878,4881,4890,4897,4899,4905,4915,4919,4929,4939,4945,4950,4955,4959,4966,4972,4978,4984,4989,4998,5005,5010,5016,5027,5031,5039,5051,5059,5064,5075,5078,5082,5089,5094,5099,5108,5118,5123,5130,5135,5138,5142,5149,5157,5163,5172,5178,5181,5192,5198,5209,5216,5227,5231,5238,5243,5247,5250,5255,5265,5273,5282,5291,5299,5304,5308,5317,5323,5330,5337,5349,5357,5365,5377,5390,5395,5406,5419,0,0,0,0,0,0,0,0,0,0,0,0,0,0,5968,0,0,0,0,0,0,0,5705,5675,5645,5637,0,0,0,0,0,5535,5543,5545,5551,5556,5564,5571,5581,5587,5592,5598,5605,5610,5623,5632,5641,5652,5653,5663,5667,5673,5680,5686,5694,5701,5709,5716,5723,5731,5734,5746,5751,5758,5764,5776,5785,5795,5804,5812,5816,5814,0,0,0,0,0,0,0,0,0,1797,1795,1792,1792,1790,1789,1788,1786,1786,1785,1787,1787,1789,1788,1787,1785,1785,1783,1783,1783,1783,1783,1782,1781,1780,1778,1778,1778,1779,1780,1781,1782,1784,1785,1786,1787,1787,1787,1788,1788,1790,1792,1794,1793,1791,1788,1785,1780,1776,1771,1768,1765,1760,1753,1748,1744,1740,1740,1741,1745,1747,1750,1752,1757,1759,1761,1762,1761,1758,1762,1763,1768,1772,1778,1775,1772,0,0,0,0,0,3767,3760,3756,3756,3757,3752,3737,3707,3675,3652,3648,3640,0,0,0,3622,3625,3622,3596,3562,3500,3451,3440,0,3420,3414,3413,3409,3413,3414,3423,0,0,0,0,0,0,0,0,0,0,0,3772,3751,3732,3720,3713,3707,3706,3710,0,0,0,0,0,0,0,0,0,0,0,0,0,7723,0,0,0,0,0,0,0,0,0,0,0,0,0,0,0,0,0,0,0,0,0,0,0,0,0,0,0,0,0,0,0,0,0,0,0,0,0,0,0,0,0,0,0,0,0,0,0,0,0,0,0,0,0,8534,8551,8548,8552,8542,8532,8519,8506,8484,8469,8452,8435.001,8414.001,8404.001,8385.001,8366.001,8347.001,8338.001,8325.001,8317.001,8318.001,8325.001,0,0,8340.001,8349.001,8351.001,8358.001,8354.001,0,0,0,9620,9593,9581,9571,0,0,0,0,0,0,0,0,0,0,0,0,0,0,0,0,0,0,0,0,0,0,0,0,0,0,0,0,0,0,0,0,0,0,0,0,0,9538,9518,9505,9479,9457,9436,9418,9394,9388,9373,9353,9328,9315,9296,9277,9249,9234,9210,9185,9170,9152,9138,9115,9097,9083,9061,9030,9012,8996,8975,8954,8932,8923,8901,8880,8864,8851,8829,8809,8788,8760,8743,8715,8699,8681,8666,8640,8636,8612,8604,8582,8571,8555,8543,8520,8502,8479,8465,8443.001,8426.001,8410.001,8392.001,8367.001,8351.001,8339.001,8325.001,8307.001,8299.001,8285,8268,8249.001,8244.001,8219,8207,8195,8182,8158,8143,8119,8108,8095,8081,8056,8039,8014,7986,7977,7964,7950,7932,7924,7909,7897,7881,7868,7850,7832,7805,7792,0,0,0,0,0,0,7695,7676,7646,7633,7624,7600,0,0,0,0,0,0,0,0,0,0,0,0,0,0,0,0,0,0,0,0,0
0,0,0,0,0,0,4421,4422,4433,4443,4450,4456,4464,4469,4476,4486,4488,4498,4504,4512,4520,4529,4535,4542,4548,4552,4556,4566,4571,4578,4583,4589,4596,4606,4610,4624,4631,4635,4643,4653,4656,4658,4660,4663,4670,4678,4689,4700,4706,4713,4715,4725,4739,4749,4753,4763,4766,4770,4773,4782,4783,0,0,0,0,0,0,0,0,0,4825,4835,4841,4848,4855,4860,4862,4869,4877,4880,4887,4895,4898,4904,4913,4917,4926,4935,4944,4948,4956,4959,4965,4971,4979,4986,4995,5003,5008,5010,5016,5023,5029,5037,5049,5056,5061,5072,5077,5082,5089,5094,5096,5105,5116,5122,5127,5132,5134,5138,5146,5157,5165,5174,5179,5183,5192,5196,5206,5211,5224,5230,5241,5246,5251,5253,5256,5263,5272,5283,5292,5298,5304,5307,5313,5318,5327,5332,5342,5351,5361,5370,5385,5396,5409,5422,0,0,0,0,0,0,0,0,0,0,0,0,0,5970,5965,0,0,0,0,0,0,0,0,0,5650,5642,5613,5596,0,0,0,5540,5543,5544,5551,5556,5559,5569,5575,5580,5587,5592,5599,5608,5616,5628,5638,5645,5651,5657,5663,5670,5676,5685,5691,5699,5707,5713,5724,5732,5735,5745,5749,5757,5762,5775,5784,5793,5800,5806,5812,5814,5819,0,0,0,0,0,0,0,0,0,0,1795,1794,1790,1789,1789,1788,1787,1788,1791,1791,1793,1791,1790,1788,1786,1785,1784,1784,1784,1784,1782,1781,1780,1778,1777,1777,1777,1778,1779,1780,1782,1783,1784,1784,1786,1786,1787,1788,1791,1791,1793,1794,1797,1790,1785,1778,1774,1771,1768,1767,1761,1756,1751,1745,1742,1741,1742,1744,1748,1751,1754,1758,1760,1760,1760,1759,1758,1759,1761,1766,1771,1775,1771,1766,0,0,0,0,0,3767,3759,3759,3756,3755,3752,3737,3708,3684,3662,3658,0,0,0,0,3631,3635,3633,3610,3576,3517,3480,0,0,0,3429,3427,3427,3430,3428,3431,0,0,0,0,0,0,0,7456,0,0,0,0,3746,3726,3714,3711,3702,3703,3710,0,0,0,0,0,0,0,0,0,0,0,0,7731,7737,7743,0,0,0,0,0,0,0,0,0,0,0,0,0,0,0,0,0,0,0,0,0,0,0,0,0,0,0,0,0,0,0,0,0,0,0,0,0,0,0,0,0,0,0,0,0,0,0,0,0,0,0,0,0,8539,8542,8544,8530,8528,8516,8501,8481,8472,8451,8437.001,8416.001,8404.001,8383,8360.001,8343.001,8334.001,8321.001,8309.001,8318.001,8318.001,8318.001,8330.001,8346.001,8350.001,8354.001,8352.001,0,0,0,0,9615,9582,9572,9563,0,0,0,0,0,0,0,0,0,0,0,0,0,0,0,0,0,0,0,0,0,0,0,0,0,0,0,0,0,0,0,0,0,0,0,0,0,9537,9519,9508,9478,9453,9437,9418,9394,9388,9373,9348,9315,9300,0,9261,9246,9227,9206,9176,9163,9143,9131,9111,9097,9079,9066,9036,9013,8993,8978,8955,8934,8921,8903,0,0,8843,8824,8803,8788,8766,8753,8725,8708,8682,8653,8625,8620,8596,8596,8582,8573,8559,8542,8518,8505,8486,8465,8440.001,8421.001,8408.001,8389.001,0,8354.001,8344.001,8328.001,8314.001,8308.001,8298.001,8277,8258,8249.001,8228,8215,8207,8190,8167,8143,8118,8101,8086,8069,8048,0,0,0,0,7965,7951,7932,7925,7905,7896,0,7866,7846,7828,7796,0,7770,0,0,0,0,7701,7697,7678,7649,7639,7630,7608,0,0,0,0,0,0,0,0,0,0,0,0,0,0,0,0,0,0,0,0,0
0,0,0,0,0,0,0,4418,4428,4437,4445,4455,4462,4467,4474,4484,4487,4495,4502,4510,4517,4525,4532,4538,4547,4552,4557,4565,4571,4574,4581,4589,4598,4607,4612,4621,4628,4631,4639,4651,4656,4658,4664,4668,4673,4679,4690,4699,4703,4711,4715,4722,4733,4746,4749,4760,4766,4772,4772,4778,4776,0,0,0,0,0,0,0,0,0,4829,4835,4840,4849,4856,4858,4860,4868,4874,4878,4888,4897,4899,4906,4914,4919,4928,4940,4950,4954,4959,4961,4965,4968,4978,4986,4996,5003,5007,5009,5016,5023,5029,5038,5048,5056,5061,5069,5074,5078,5085,5090,5093,5102,5114,5122,5125,5130,5132,5137,5141,5154,5159,5168,5173,5178,5187,5193,5202,5209,5221,5228,5238,5244,5248,5250,5254,5263,5270,5277,5286,5292,5301,5305,5311,5315,5324,5326,5338,5347,5362,5372,5388,5394,5414,5421,5427,0,0,0,0,0,0,0,0,0,0,0,0,5962,5959,0,0,0,0,0,0,0,0,5669,5651,5641,5617,5606,0,0,0,5539,5539,5541,5553,5556,5565,5569,5576,5580,5586,5590,5599,5608,5617,5629,5638,5644,5653,5658,5663,5668,5676,5680,5689,5693,5704,5712,5722,5731,5737,5742,5747,5756,5760,5772,5782,5792,5799,5804,5809,5811,5818,5826,5836,5844,0,0,0,0,0,0,0,0,0,1791,1790,1790,1788,1789,1792,1795,1795,1797,1796,1794,1791,1789,1787,1785,1784,1783,1783,1781,1781,1779,1777,1776,1776,1777,1778,1778,1780,1781,1781,1782,1783,1784,1784,1785,1786,1790,1791,1795,1796,1796,1790,1785,1777,1771,1766,1765,1764,1760,1759,1754,1746,1742,1740,1740,1742,1748,1752,1756,1759,1762,1761,1759,1759,1759,1763,1764,1767,1770,1773,1771,1765,0,0,0,0,0,3767,3759,3756,3755,3755,3753,3738,3711,3687,3674,3665,0,0,0,0,3646,3646,3640,3618,3585,3545,3520,3509,3498,3481,3456,3448,3445,0,0,0,0,0,0,0,0,7412,7439,7453,0,0,0,0,3744,3725,3711,3707,3703,3703,3709,0,0,0,0,0,0,0,0,0,0,0,0,7735,7744,7749,0,0,0,0,0,0,0,0,0,0,0,0,0,0,0,0,0,0,0,0,0,0,0,0,0,0,0,0,0,0,0,0,0,0,0,0,0,0,0,0,0,0,0,0,0,0,0,0,0,0,0,0,8527,8535,8539,8535,8526,8528,8516,8497,8479,8468,8446.001,8431.001,8413.001,8396.001,8376.001,8352.001,8341.001,8332.001,8327.001,8309.001,8321.001,8315.001,0,0,8352.001,8353.001,8363.001,0,0,0,0,0,9604,9574,9564,9551,0,0,0,0,0,0,0,0,0,0,0,0,0,0,0,0,0,0,0,0,0,0,0,0,0,0,0,0,0,0,0,0,0,0,0,0,0,0,0,0,9472,9444,9431,9408,9390,9376,9361,9328,9305,9282,9269,9242,9240,9212,9203,0,9165,9143,9130,9106,9100,9075,9058,9032,9012,8992,8979,8959,8936,8920,8901,0,8853,8835,8809,0,8774,8755,8741,8726,8710,8691,8652,8635,8615,8593,8588,8586,0,8558,8541,8516,8497,8486,8461,8441.001,8431.001,8419.001,8395.001,8375.001,8358.001,8345.001,8327.001,8312.001,8302.001,8297.001,8267,8252.001,8241.001,8222,8206,8196,8182,8163,8141,8116,8099,8081,8063,0,8041,8026,7994,7984,7968,7947,7927,7919,7903,7890,7875,7860,7845,7823,7804,7790,7776,7762,0,0,0,7695,7687,7671,7649,7633,7629,7603,0,0,0,0,0,0,0,0,0,0,0,0,0,0,0,0,0,0,0,0,0
0,0,0,0,0,0,0,4413,4424,4432,4438,4449,4461,4465,4474,4483,4487,4490,4500,4506,4514,4520,4529,4534,4545,4547,4553,4558,4563,4561,4571,4576,4589,4597,4609,4615,4624,4626,4635,4642,4649,4651,4658,4663,4670,4676,4688,4693,4699,4708,4714,4718,4731,4741,4742,4753,4759,4765,4766,4771,4770,4764,0,0,0,0,0,0,0,4816,4838,4840,4844,4850,4855,4855,4859,4866,4873,4877,4886,4892,4897,4903,4911,4917,4929,4937,4948,4952,4958,4961,4963,4964,4975,4983,4992,5001,5007,5010,5013,5019,5029,5038,5048,5058,5062,5068,5071,5075,5081,5088,5093,5104,5116,5123,5127,5132,5133,5136,5139,5151,5156,5165,5170,5176,5182,5190,5195,5205,5216,5225,5234,5242,5244,5245,5248,5257,5264,5273,5284,5290,5299,5306,5310,5313,5321,5323,5331,5341,5355,5364,5381,5395,5417,5428,5431,0,0,0,0,0,0,0,0,0,0,0,0,0,0,0,0,0,0,0,0,0,0,0,5661,5644,5623,5609,0,0,0,5535,5533,5540,5547,5555,5563,5562,5572,5574,5584,5589,5600,5605,5616,5623,5631,5639,5646,5653,5660,5667,5675,5681,5690,5695,5705,5713,5722,5730,5737,5743,5751,5756,5766,5774,5785,5792,5796,5799,5802,5807,5818,5826,5839,5849,5860,5866,5876,0,0,0,0,0,0,0,0,1791,1792,1792,1795,1798,1798,1799,1797,1795,1792,1791,1788,1785,1784,1782,1782,1780,1779,1778,1777,1776,1775,1776,1776,1777,1778,1779,1780,1782,1782,1783,1783,1785,1786,1789,1790,1792,1791,1791,1783,1781,1772,1766,1763,1765,1765,1764,1761,1755,1749,1744,1739,1740,1742,1748,1753,1758,1760,1759,1759,1759,1755,1758,1758,1766,1765,1769,1766,1764,0,0,0,6982,0,3799,3764,3759,3755,3756,3755,3751,3727,3701,3683,3676,3669,0,0,0,3663,0,3661,3650,3625,3591,3560,3543,3544,3534,3523,0,0,0,0,0,0,0,0,0,0,0,7408,7433,7445,7456,0,4479,0,3734,3718,3709,3704,3701,3700,3705,0,0,0,0,0,0,0,0,0,0,7697,7722,7728,7731,0,0,0,0,0,0,0,0,0,0,0,0,0,0,0,0,0,0,0,0,0,0,0,0,0,0,0,0,0,0,0,0,0,0,0,0,0,0,0,0,0,0,0,0,0,0,0,0,0,0,0,0,0,8527,8534,8534,8525,8519,8523,8513,8498,8483,8473,8450,8432.001,8411.001,8394.001,8369.001,8351.001,8346.001,8334.001,8324.001,8305.001,8312.001,8301.001,8311.001,0,8347.001,8347.001,8360.001,0,0,0,0,0,9592,9581,9569,9550,0,0,0,0,0,0,0,0,0,0,0,0,0,0,0,0,0,0,0,0,0,0,0,0,0,0,0,0,0,0,0,0,0,0,0,0,0,0,9503,9499,9479,9456,9438,9419,9394,9376,9354,9324,9300,9279,9266,9244,9237,9209,9197,9170,9165,9148,9135,9119,0,0,9067,9040,9008,8994,8973,8954,8934,8919,8899,8875,8853,8833,8815,8800,0,0,8747,8723,8709,8689,8663,8648,8634,8602,8597,8588,0,8553,8543,8513,8494,8480,8450,8426.001,8424.001,8410.001,8391.001,8375.001,8364.001,8337.001,8323.001,8304.001,8296.001,8288.001,8270,8254.001,8238,8214,8199,8184,8168,8155,8136,8109,8098,8082,8056,8043,8034,0,7985,7975,0,0,7913,7907,7888,7874,7856,7845,7829,7817,7804,7796,7783,7774,7751,7726,0,7698,7683,7670,7647,7632,7618,7597,0,0,0,0,0,0,0,0,0,0,0,0,0,0,0,0,0,0,0,0,0
0,0,0,0,0,0,0,4417,4425,4436,0,4446,4457,4461,4468,4477,4487,4488,4495,4500,4507,4514,4526,4532,4543,4545,4551,4553,4560,4559,4571,4572,4586,4590,4603,4604,4618,4622,4635,4642,4651,4653,4659,4661,4665,4672,4683,4686,4690,4701,4706,4707,4720,4731,4732,4743,4751,4759,4759,4763,4764,4765,4748,0,0,0,0,0,0,4823,4837,4840,4842,4847,4852,4856,4859,4868,4873,4879,4885,4889,4896,4901,4907,4916,4927,4935,4948,4954,4959,4962,4963,4965,4974,4981,4990,4999,5005,5009,5013,5020,5027,5034,5044,5052,5057,5064,5070,5074,5083,5090,5095,5105,5116,5122,5125,5132,5132,5137,5140,5151,5153,5164,5168,5175,5181,5189,5192,5203,5211,5220,5229,5241,5241,5243,5249,5257,5262,5272,5283,5285,5294,5305,5308,5311,5320,5324,5328,5338,5350,5360,5377,5398,5420,5436,5444,0,0,0,0,0,0,0,0,0,0,0,0,0,5964,5951,0,0,0,0,0,0,0,0,5663,5639,5620,5600,5592,0,0,5539,5535,5540,5545,5549,5555,5563,5573,5576,5583,5589,5602,5607,5615,5621,5631,5636,5647,5652,5661,5666,5675,5679,5691,5694,5704,5711,5725,5730,5738,5746,5749,5758,5764,5772,5782,5792,5795,5800,5806,5808,5818,5826,5840,5847,5862,5865,5872,5881,5891,0,0,0,0,0,0,0,0,1793,1798,1801,1801,1801,1799,1797,1794,1792,1789,1786,1784,1782,1782,1780,1779,1778,1776,1775,1774,1774,1774,1774,1775,1776,1778,1779,1780,1782,1783,1784,1786,1789,1789,1790,1790,1787,1781,1781,1776,1771,1770,1770,1768,1766,1764,1757,1750,1743,1739,1740,1742,1747,1752,1757,1759,1761,1758,1757,1758,1758,1762,1767,1769,1771,1768,1764,0,0,0,6969,0,0,3764,3758,3758,3758,3753,3753,3725,3695,3681,3676,3672,3670,3669,3668,3668,3669,3662,3653,3630,3591,3566,3555,3554,3550,3549,0,0,0,0,0,0,0,0,0,0,7389,7401,7423,7430,7444,7465,0,0,0,3712,3703,3701,3701,3697,3704,0,0,0,0,0,0,0,0,7666,7682,0,0,0,0,0,0,0,0,0,0,0,0,0,0,0,0,0,0,0,0,0,0,0,0,0,0,0,0,0,0,0,0,0,0,0,0,0,0,0,0,0,0,0,0,0,0,0,0,0,0,0,0,0,0,0,0,0,8526,8533,8532,8527,8523,8524,8516,8500,8483,8470,8446.001,8426.001,8410.001,8396.001,8375.001,8358.001,8353.001,8335.001,8320.001,8304.001,8310.001,8300.001,8316.001,8324.001,8344.001,8343.001,8359.001,0,0,0,0,0,9599,9587,9571,9552,0,0,0,0,0,0,0,0,0,0,0,0,0,0,0,0,0,0,0,0,0,0,0,0,0,0,0,0,0,0,0,0,0,0,0,0,0,0,9505,9495,9478,9459,9440,9423,9403,9386,9357,9331,9309,9291,9272,9255,9241,9214,9197,9171,9159,9148,9135,9115,9104,9081,9065,9037,9010,8994,8977,8952,8934,8908,8897,8868,8851,8827,8810,8789,8774,8758,8751,8730,8720,8695,8666,8646,8627,8588,8584,0,0,8548,8539,8508,8486,8472,8447,8425.001,8427.001,8414.001,8397.001,8376.001,8364.001,8337.001,8322.001,8300.001,8293.001,8280,8262,8246.001,8230,8208,8196,8179,8168,8158,8143,8120,8106,8079,8051,8041,8031,8011,7991,7980,7956,7933,7915,7906,7886,7875,7861,7849,7833,7819,7808,7800,7789,7777,0,0,0,7689,7674,7661,7642,7624,0,0,0,0,0,0,0,0,0,0,0,0,0,0,0,0,0,0,0,0,0,0,0
0,0,0,0,0,0,0,4417,4422,4430,0,4446,4453,4460,4464,4475,4485,4487,4489,4498,4503,4508,4518,4529,4537,4539,4543,4549,4556,4558,4572,4579,4588,4591,4601,4601,4612,4617,4627,4636,4646,4651,4658,4665,4665,4671,4680,4684,4687,4702,4707,4707,4716,4727,4729,4741,4748,4755,4752,4754,4753,4759,4751,4751,0,0,0,0,0,4831,4839,4844,4842,4847,4850,4852,4855,4864,4872,4879,4886,4892,4899,4901,4906,4915,4924,4932,4944,4951,4957,4964,4965,4970,4976,4983,4991,5000,5006,5010,5014,5022,5027,5032,5042,5050,5054,5063,5069,5074,5080,5088,5092,5102,5113,5121,5124,5130,5132,5136,5139,5147,5150,5162,5168,5177,5184,5192,5194,5205,5212,5220,5229,5239,5239,5243,5248,5256,5260,5269,5279,5281,5291,5301,5306,5308,5320,5322,5328,5337,5350,5359,5380,5405,5430,5441,5445,0,0,0,0,0,0,0,0,0,0,0,0,0,5964,5950,0,0,0,0,0,0,0,0,5653,5625,5615,5597,0,0,0,5536,5531,5537,5538,5544,5550,5557,5567,5573,5584,5589,5601,5604,5616,5621,5629,5633,5641,5645,5656,5661,5672,5680,5691,5696,5706,5713,5724,5730,5742,5747,5754,5762,5770,5774,5785,5791,5796,5797,5803,5810,5818,5825,5840,5846,5859,5865,5875,5884,5894,5899,5910,5922,0,0,0,0,0,0,1797,1799,1798,1800,1799,1796,1793,1792,1789,1787,1785,1782,1780,1779,1777,1777,1776,1775,1774,1774,1773,1773,1774,1775,1777,1778,1780,1781,1782,1783,1785,1786,1787,1788,1788,1783,1782,1780,1775,1770,1768,1766,1763,1761,1761,1753,1746,1742,1740,1741,1743,1750,1752,1758,1758,1758,1757,1753,1756,1760,1760,1767,1771,1774,1771,1763,0,0,6971,6950,0,3805,3765,3760,3758,3759,3755,3755,3731,3699,0,0,3673,3670,3670,3667,3666,3667,3660,3646,3621,3583,3564,3560,3560,3558,3558,0,0,0,0,0,0,0,0,0,0,7396,7405,7424,7426,7441,7451,7466,0,0,3707,3702,3703,3702,3699,3709,0,0,0,0,0,0,0,0,0,7676,0,0,7727,0,0,0,0,0,0,0,0,0,0,0,0,0,0,0,0,0,0,0,0,0,0,0,0,0,0,0,0,0,0,0,0,0,0,0,0,0,0,0,0,0,0,0,0,0,0,0,0,0,0,0,0,0,0,8535,8530,8534,8523,8518,8513,8507,8489,8475,8462,8443.001,8420.001,8405.001,8385.001,8365.001,8350.001,8350.001,8330.001,8315.001,8298.001,8300.001,8287,8302.001,8312.001,8333.001,8334.001,8356.001,0,0,0,0,0,9593,9578,9564,0,0,0,0,0,0,0,0,0,0,0,0,0,0,0,0,0,0,0,0,0,0,0,0,0,0,0,0,0,0,0,0,0,0,0,0,0,0,0,9507,9489,9470,9451,9434,9414,9399,9380,9352,9323,9306,9286,9273,9252,9238,9218,9201,9173,9171,9159,9134,9112,9102,9065,9052,9032,9008,8994,8981,8954,8930,8907,8886,8861,8844,8822,8802,8786,8771,8759,8753,8740,8721,8699,8670,8652,8624,8588,8585,8578,8555,8548,8538,8507,8491,8477,8452,8428.001,8425.001,8408.001,8390.001,8369.001,8352.001,8332.001,8315.001,8295.001,8287,8274,8252.001,8235,8215,8192,8180,8163,8154,8141,8129,8107,8097,8063,8041,8027,8017,7996,7982,7973,7962,7941,7927,7910,7890,7873,7859,7846,7834,7816,7805,7795,7782,7772,0,0,0,7696,7676,0,0,0,0,0,0,0,0,0,0,0,0,0,0,0,0,0,0,0,0,0,0,0,0,0,0
0,0,0,0,0,0,0,0,4422,4431,4441,4451,4457,4464,4470,4479,4486,4484,4486,4491,4496,4503,4511,4523,4531,4535,4540,4547,4555,4558,4571,4577,4586,4588,4598,4598,4610,4615,4623,4631,4642,4649,4653,4663,4662,4667,4674,4681,4686,4701,4706,4708,4714,4721,4724,4738,4743,4751,4749,4751,4750,4755,4753,4756,4764,0,0,0,0,4833,4836,4843,4841,4843,4848,4852,4855,4864,4872,4880,4886,4891,4898,4899,4904,4912,4921,4928,4941,4950,4954,4963,4965,4970,4971,4979,4985,4995,5000,5007,5014,5021,5026,5030,5038,5047,5051,5062,5070,5072,5078,5083,5088,5096,5106,5113,5119,5125,5128,5133,5139,5144,5150,5161,5168,5175,5183,5190,5193,5205,5211,5218,5226,5236,5236,5241,5247,5256,5258,5265,5275,5279,5285,5297,5304,5308,5319,5326,5333,5340,5351,5362,5386,5407,5436,5453,5456,5437,0,0,0,0,0,0,0,0,0,0,0,0,5953,5939,0,5869,5819,0,0,0,0,0,0,5618,5609,5587,0,0,0,5523,5523,5532,5535,5539,5551,5557,5566,5577,5586,5589,5601,5605,5617,5621,5627,5633,5641,5645,5654,5663,5672,5678,5690,5697,5706,5710,5721,5728,5741,5748,5755,5765,5767,5776,5782,5792,5796,5799,5807,5809,5821,5827,5838,5844,5852,5862,5875,5885,5894,5901,5909,5916,5919,0,0,0,0,0,1796,1800,1799,1799,1799,1797,1793,1792,1788,1784,1783,1780,1778,1778,1777,1776,1775,1774,1772,1772,1771,1771,1772,1773,1775,1776,1778,1780,1781,1783,1785,1787,1787,1789,1788,1785,1784,1783,1779,1772,1770,1764,1761,1759,1758,1750,1745,1743,1739,1741,1742,1748,1749,1757,1758,1759,1760,1760,1759,1761,1765,1766,1769,1769,1764,0,0,0,6962,6943,0,3795,3763,3758,3759,3759,3756,3756,3730,0,0,0,3673,3675,3670,3668,3663,3663,3653,3640,3609,3573,3561,3558,3557,3559,3568,0,0,0,3792,3798,3790,0,0,0,0,7393,0,7418,7421,7440,7444,7458,0,0,3714,3707,3707,3704,3701,3707,0,0,0,0,0,0,0,7647,7663,7672,7691,0,0,0,0,0,0,0,0,0,0,0,0,0,0,0,0,0,0,0,0,0,0,0,0,0,0,0,0,0,0,0,0,0,0,0,0,0,0,0,0,0,0,0,0,0,0,0,0,0,0,0,0,0,0,0,0,8526,8525,8534,8523,8524,8516,8508,8491,8476,8458,8441.001,8416.001,8401.001,8384.001,8361.001,8348.001,8343.001,8323.001,8304.001,8297.001,8296.001,8290.001,8298.001,8306.001,8323.001,8322.001,8347.001,8354.001,0,0,0,0,0,0,9560,0,0,0,0,0,0,0,0,0,0,0,0,0,0,0,0,0,0,0,0,0,0,0,0,0,0,0,0,0,0,0,0,0,0,0,0,0,0,0,9492,9472,9460,9442,9423,9403,9393,9372,9343,9322,9316,9291,9274,9254,0,9215,9205,9185,9178,9161,9135,9107,9093,9058,9042,9023,8999,8989,8977,8954,8930,8910,0,0,0,0,0,8793,8771,8763,8756,8745,8723,8708,8678,8658,8631,8605,8587,8580,8555,8548,8535,8510,8485,8473,8453,8429.001,8427.001,8406.001,8385.001,8361.001,8345.001,8320.001,8307.001,8289.001,8278,8262,8247.001,8226,8204,8179,8170,8149,8144,8128,8120,8098,8092,8058,8047,8032,8025,7998,7983,7967,7949,7929,7914,7904,7893,7877,7864,7852,7841,7819,7809,7794,7777,7766,7755,0,0,7701,0,0,0,0,0,0,0,0,0,0,0,0,0,0,0,0,0,0,0,0,0,0,0,0,0,0,0
0,0,0,0,0,0,0,0,0,4437,4444,4447,4450,4453,4460,4469,4480,4479,4478,4487,4491,4500,4507,4521,4526,4532,4534,4544,4551,4559,4572,4580,4585,4587,4596,4593,4602,4610,4620,4626,4637,4644,4647,4654,4656,4662,4668,4679,4686,4696,4702,4706,4711,4717,4723,4736,4738,4742,4745,4746,4749,4757,4761,4765,4776,4774,0,0,0,4839,4838,4845,4842,4843,4845,4851,4854,4862,4869,4878,4883,4888,4894,4897,4904,4912,4920,4927,4938,4943,4947,4957,4960,4967,4970,4977,4981,4991,4996,5006,5014,5022,5027,5031,5037,5042,5048,5058,5066,5072,5079,5084,5088,5097,5106,5113,5122,5125,5129,5133,5138,5142,5150,5161,5168,5175,5183,5186,5191,5204,5208,5217,5228,5238,5238,5245,5250,5255,5258,5266,5276,5280,5286,5298,5305,5308,5317,5327,5330,5337,5346,5359,5381,5411,5437,5464,5471,5452,0,0,0,0,0,0,0,0,0,0,0,0,5962,5941,0,0,5808,0,5763,5727,5703,0,0,0,0,5570,0,0,0,5523,5524,5533,5535,5540,5546,5555,5564,5572,5585,5590,5602,5604,5613,5616,5623,5625,5635,5639,5650,5662,5675,5680,5694,5696,5705,5708,5718,5727,5736,5745,5753,5761,5770,5774,5784,5790,5795,5797,5802,5810,5821,5831,5839,5844,5852,5862,5871,5882,5891,5898,5905,5913,5917,0,0,0,0,0,1791,1796,1796,1797,1797,1793,1790,1788,1786,1784,1782,1780,1778,1776,1775,1775,1773,1772,1770,1769,1768,1768,1769,1770,1771,1773,1775,1778,1780,1782,1784,1785,1785,1786,1789,1784,1784,1783,1780,1773,1773,1768,1762,1759,1755,1749,1745,1744,1740,1743,1744,1748,1752,1758,1759,1759,1759,1759,1761,1760,1765,1765,1765,1761,0,0,0,0,6955,6937,0,3790,3761,3758,3758,3758,3757,3754,0,0,0,0,0,3674,3669,3665,3660,3657,3644,3628,3594,3565,3557,3557,3555,3561,3581,0,0,0,3813,3817,3802,0,0,0,0,7394,7405,7418,7421,7438,7441,7461,0,0,3712,3705,3701,3700,3697,3703,0,0,0,0,0,0,0,7653,7665,7671,7675,0,0,0,0,0,0,0,0,0,0,0,0,0,0,0,0,0,0,0,0,0,0,0,0,0,0,0,0,0,0,0,0,0,0,0,0,0,0,0,0,0,0,0,0,0,0,0,0,0,0,0,0,0,0,0,0,8520,8528,8540,8532,8531,8519,8507,8490,8472,8455,8438.001,8416.001,8400.001,8383,8359.001,8344.001,8338.001,8317.001,8299.001,8297.001,8296.001,8295.001,8305.001,8315.001,8326.001,8328.001,8342.001,8352.001,0,0,0,0,0,0,9558,0,0,0,0,0,0,0,0,0,0,0,0,0,0,0,0,0,0,0,0,0,0,0,0,0,0,0,0,0,0,0,0,0,0,0,0,0,0,0,9489,9472,9459,9442,9423,9406,9391,9377,9348,9332,9321,9296,9271,9252,9226,9207,9199,9181,9165,9150,0,9104,9087,9059,9045,9021,8997,8986,8972,8949,8932,8911,8889,0,8856,8828,0,8789,8770,8759,8751,8737,8714,8694,8673,8650,8628,8602,8583,8568,8542,8530,8529,8503,8485,8474,8454,8424.001,8417.001,8389.001,8372.001,8353.001,8342.001,8323.001,8314.001,8294.001,8279,8259,8248.001,8226,8203,8177,8165,8141,8136,8121,8116,8096,8089,8054,8046,8034,8025,7999,7988,7965,7946,7931,7910,7901,7890,7876,7864,7857,7841,7822,7807,7793,7768,7763,0,0,0,0,7665,7650,0,0,0,0,0,0,0,0,0,0,0,0,0,0,0,0,0,0,0,0,0,0,0,0,0
0,0,0,0,0,0,0,0,0,4443,4452,4455,4447,4451,4460,4466,4472,4480,4477,0,4491,4500,4503,4518,4521,4529,4533,4543,4548,4557,4570,4579,4584,4589,4596,4595,4604,4612,4621,4627,4635,4641,4644,4652,4653,4660,4664,4675,4679,4692,4697,4705,4709,4715,4720,4730,4730,4735,4737,4740,4745,4753,4760,4767,4776,0,0,0,4841,4829,4828,4836,4834,4837,4841,4847,4850,4858,4867,4878,4884,4890,4896,4899,4905,4913,4919,4929,4938,4941,4947,4956,4961,4969,4973,4980,4986,4992,4995,5005,5013,5021,5025,5031,5037,5042,5048,5059,5065,5069,5075,5081,5084,5091,5100,5107,5115,5122,5127,5133,5137,5142,5151,5160,5167,5174,5182,5186,5192,5201,5208,5218,5228,5236,5239,5245,5249,5257,5259,5266,5276,5281,5286,5297,5304,5308,5319,5329,5336,5343,5353,5364,5386,5408,5440,5467,5477,5463,5463,0,0,0,0,0,0,0,0,0,0,0,0,5945,5906,5867,0,0,0,0,0,5661,5629,5600,5584,5564,0,0,0,5525,5526,5532,5537,5543,5548,5558,5569,5575,5586,5593,5598,5604,5610,5615,5619,5626,5634,5639,5650,5658,5670,5674,5688,5694,5702,5707,5716,5725,5734,5746,5749,5758,5763,5773,5780,5787,5795,5796,5806,5813,5824,5832,5840,5843,5850,5860,5870,5882,5891,5895,5902,5909,5913,0,0,0,0,0,1794,1795,1796,1799,1799,1794,1792,1788,1786,1783,1781,1779,1776,1775,1773,1772,1770,1769,1765,1764,1762,1762,1763,1764,1765,1766,1769,1772,1775,1779,1782,1784,1785,1787,1789,1787,1787,1784,1781,1774,1774,1768,1762,1757,1751,1749,1747,1746,1743,1744,1744,1747,1749,1755,1757,1761,1760,1764,1764,1767,1770,1770,1777,1768,0,0,0,6963,6952,6926,6879,3794,3767,3757,3757,3757,3757,3756,0,0,0,0,0,3674,3663,3658,3652,3645,3628,3612,3578,3555,3554,3556,3552,3561,0,0,0,3841,3822,3812,3802,0,0,0,0,0,7394,0,0,0,7437,0,0,0,3711,3704,3703,3698,3697,3707,0,0,0,0,0,7604,7641,7648,7666,7672,0,0,0,0,0,0,0,0,0,0,0,0,0,0,0,0,0,0,0,0,0,0,0,0,0,0,0,0,0,0,0,0,0,0,0,0,0,0,0,0,0,0,0,0,0,0,0,0,0,0,0,0,0,0,0,0,0,8530,8539,8551,8543,8535,8519,8508,8484,8468,8451,8436.001,8411.001,8403.001,8383,8365.001,8348.001,8341.001,8316.001,8304.001,8299.001,8297.001,8296.001,8308.001,8312.001,8322.001,8333.001,8347.001,8359.001,0,0,0,0,0,0,9555,9544,0,0,0,0,0,0,0,0,0,0,0,0,0,0,0,0,0,0,0,0,0,0,0,0,0,0,0,0,0,0,0,0,0,0,0,0,0,0,9479,9463,0,9429,9410,9392,9379,9365,9345,9330,9324,9304,9276,9254,9233,9208,9200,9179,9158,9129,9109,9079,9069,9048,9037,9015,8998,8985,8972,8946,8931,8909,8884,8865,8855,8830,8812,8795,8771,8761,8749,8734,8706,8692,8668,8645,8617,8597,8573,8559,8537,8527,8517,8495,8477,8467,8448,8426.001,8414.001,8388.001,8369.001,8350.001,8335.001,8323.001,8311.001,8293.001,8274,8255.001,8238,8219,8199,8180,8167,8144,8135,8116,0,8095,8086,8059,8055,8033,8025,8005,7985,7959,7942,7928,7912,7902,7895,7881,7869,7860,7848,7819,7802,7785,7760,7749,0,0,0,0,0,0,0,0,0,0,0,0,0,0,0,0,0,0,0,0,0,0,0,0,0,0,0,0,0,0,0
0,0,0,0,0,0,0,0,0,0,4448,4453,4444,4450,4458,4460,4460,4469,4470,0,4492,4505,4506,4518,4522,4530,4533,4540,4544,4552,4564,4574,4581,4588,4595,4597,4605,4611,4620,4624,4631,4636,4640,4647,4651,4655,4660,4673,4679,4689,4696,4705,4708,4713,4719,4728,4727,4730,4734,4740,4745,4753,4761,4768,4775,0,0,0,0,4831,4830,4835,4833,4835,4839,4844,4847,4855,4863,4875,4882,4889,4896,4901,4906,4913,4919,4927,4935,4939,4945,4952,4959,4966,4970,4978,4984,4989,4994,5004,5012,5019,5027,5029,5037,5042,5049,5058,5064,5068,5073,5078,5082,5090,5099,5107,5115,5118,5124,5129,5132,5136,5148,5156,5166,5175,5184,5186,5194,5201,5208,5217,5227,5234,5238,5244,5246,5254,5257,5264,5274,5282,5285,5294,5300,5306,5313,5326,5333,5338,5347,5362,5386,5416,0,5475,0,5461,5453,0,0,0,0,0,0,0,0,0,0,0,0,0,0,0,0,0,0,0,0,0,0,5593,0,5553,0,0,0,5531,5529,5533,5537,5543,5548,5556,5564,5574,5586,5592,5600,5603,5609,5607,5617,5622,5634,5638,5652,5660,5672,5674,5685,5690,5695,5702,5714,5719,5732,5739,5748,5755,5762,5766,5774,5783,5787,5793,5804,5810,5821,5827,5836,5842,5846,5856,5865,5877,5886,5893,5899,5908,5911,0,0,0,0,0,1793,1792,1794,1796,1794,1790,1791,1787,1785,1782,1781,1778,1775,1773,1771,1768,1765,1763,1759,1756,1754,1753,1753,1754,1755,1756,1760,1764,1768,1772,1777,1779,1782,1784,1788,1787,1788,1783,1780,1772,1768,1764,1760,1754,1749,1747,1746,1746,1743,1744,1746,1751,1754,1759,1759,1759,1760,1760,1766,1768,1772,1773,0,0,0,0,0,0,6946,6922,0,3791,3765,3757,3755,3758,3759,3759,0,0,0,0,0,0,0,0,0,0,0,0,3559,3549,3551,3551,3553,3560,0,0,0,3850,3834,3821,3813,0,0,0,0,0,7386,0,7420,7437,7441,7464,0,0,3715,3707,3702,3697,3698,3708,0,0,0,0,0,7616,7650,7653,7669,7669,7674,0,0,0,0,0,0,0,0,0,0,0,0,0,0,0,0,0,0,0,0,0,0,0,0,0,0,0,0,0,0,0,0,0,0,0,0,0,0,0,0,0,0,0,0,0,0,0,0,0,0,0,0,0,0,0,0,8530,8543,8556,8545,8533,8516,8504,8479,8464,8449,8431.001,8411.001,8403.001,8381.001,8360.001,8347.001,8334.001,8307.001,8294.001,8292.001,8284,8287,8297.001,8303.001,8312.001,8327.001,8337.001,8345.001,8352.001,0,0,0,0,0,0,9549,0,0,0,0,0,0,0,0,0,0,0,0,0,0,0,0,0,0,0,0,0,0,0,0,0,0,0,0,0,0,0,0,0,0,0,0,0,0,0,0,0,9427,9410,9385,9374,9349,9333,9318,9313,9289,9270,9248,9236,9210,9203,9177,9156,9113,9090,9066,9055,9038,9029,9017,8997,8988,8967,8937,8916,8899,8871,8863,8855,8837,8820,8804,8775,8762,8746,8731,8704,8688,8666,8644,8614,8597,8577,8555,8533,8522,8504,8481,8469,8456,8438.001,8420.001,8410.001,8383,8366.001,8348.001,8333.001,8318.001,8304.001,8288.001,8273,8258,8239,8219,8197,8177,8161,8141,8131,8107,8097,8084,8074,8050,8051,8032,8025,8006,7991,0,0,7925,7907,7892,7891,7876,7859,7847,7836,7811,7797,7776,7759,7749,0,0,0,0,0,7642,0,7605,0,0,0,0,0,0,0,0,0,0,0,0,0,0,0,0,0,0,0,0,0,0,0
0,0,0,0,0,0,0,0,0,0,4443,4444,4439,4442,4456,4459,4463,4475,4482,4484,4490,4504,4505,4515,4523,4531,4535,4541,4548,4555,4564,4569,4576,4578,4583,4588,4599,4606,4617,4623,4628,4633,4640,4645,4651,4656,4662,4672,4675,4684,4691,4700,4704,4712,4716,4723,4726,4728,4734,4741,4749,4754,4762,4765,4773,4776,0,0,0,4826,4826,4828,4829,4834,4838,4843,4848,4854,4859,4870,4879,4886,4893,4899,4904,4910,4916,4924,4933,4939,4944,4950,4959,4964,4969,4978,4985,4989,4992,5000,5007,5014,5022,5031,5039,5043,5051,5056,5062,5066,5070,5078,5082,5091,5098,5106,5112,5117,5123,5129,5133,5139,5148,5155,5163,5169,5177,5183,5189,5198,5205,5214,5222,5231,5237,5242,5246,5254,5256,5265,5276,5281,5284,5293,5300,5305,5313,5326,5332,5336,5346,5362,5385,5417,0,5480,0,0,0,0,0,0,0,0,0,0,0,0,0,0,0,5940,5906,5877,5840,5808,0,0,0,0,0,5593,0,5547,0,0,0,5531,5530,5533,5538,5541,5548,5555,5563,5575,5584,5592,5597,5598,5605,5608,5613,5622,5632,5641,5650,5660,5668,5672,5681,5688,5695,5701,5708,5722,5731,5738,5744,5751,5756,5763,5772,5779,5788,5795,5803,5813,5824,5830,5837,5843,5850,5854,5863,5873,5882,5892,5899,5907,5914,0,0,0,0,0,1796,1796,1797,1798,1796,1793,1792,1788,1785,1780,1778,1775,1772,1769,1766,1763,1758,1752,1747,1743,1740,1737,1739,1738,1741,1743,1744,1749,1756,1763,1771,1775,1778,1780,1784,1785,1785,1780,1777,1770,1768,1764,1759,1757,1752,1750,1748,1747,1744,1744,1745,1748,1752,1757,1760,1760,1764,1767,1769,1769,1774,1768,1761,0,0,0,0,0,6946,6923,0,0,3760,3754,3751,3753,3756,3761,0,0,0,0,0,0,0,0,0,0,0,0,3547,3549,3552,3550,3553,3563,0,0,0,3849,3832,3821,3804,0,0,0,0,0,7388,7406,7425,7438,7439,0,0,0,3714,3704,3696,3690,3691,3701,0,0,0,0,0,7611,7642,0,7654,0,0,0,0,0,0,0,0,0,0,0,0,0,0,0,0,0,0,0,0,0,0,0,0,0,0,0,0,0,0,0,0,0,0,0,0,0,0,0,0,0,0,0,0,0,0,0,0,0,0,0,0,0,0,0,0,0,0,8518,8540,8546,8539,8527,8511,8498,8477,8461,8443.001,8425.001,8411.001,8398.001,8381.001,8354.001,8339.001,0,8296.001,8280,8288.001,8279,8286,0,0,8317.001,8335.001,8341.001,8344.001,8345.001,0,0,0,0,0,0,9561,0,0,0,0,0,0,0,0,0,0,0,0,0,0,0,0,0,0,0,0,0,0,0,0,0,0,0,0,0,0,0,0,0,0,0,0,0,0,9463,9454,9447,9422,9405,9389,9373,9349,9335,9323,9309,9293,9264,9245,9233,9209,9195,9172,9144,9104,9088,9067,9056,9043,9035,9021,9003,8986,8961,8928,8910,8887,8867,8860,8849,8827,8821,8802,8777,8761,8742,8719,8694,8675,8656,8632,8604,8593,8574,8548,8529,8514,8497,8475,8463,8449,8429.001,8410.001,8402.001,8379.001,8362.001,8345.001,8335.001,8318.001,8302.001,8286,8272,8257,8238,8220,8202,8182,0,8147,0,8117,8100,8088,8072,8053,8051,8035,8024,8009,7991,7955,0,7917,7902,7895,7889,7876,7854,7841,7822,7803,7789,7772,7756,7745,0,0,0,0,7647,0,7609,7604,0,0,0,0,0,0,0,0,0,0,0,0,0,0,0,0,0,0,0,0,0,0,0
