0.00 0.00 0.00 0.00 0.00 0.00 0.00 0.00 0.00 0.00 0.00 0.00 0.00 0.00 0.00 0.00 0.00 0.00 0.00 0.00 0.00 0.00 0.00 0.00 0.00 0.00 0.00 0.00 0.00 0.00 0.00 0.00 0.00 0.00 0.00 0.00 0.00 0.00 0.00 0.00 0.00 0.00 0.00 0.00 0.00 0.00 0.00 0.00 0.00 0.00 0.00 0.00 0.00 0.00 0.00 0.00 0.00 0.00 0.00 0.00 0.00 0.00 0.00 0.00 0.00 0.00 0.00 0.00 0.00 0.00 0.00 0.00 0.00 0.00 0.00 0.00 0.00 0.00 0.00 0.00 0.00 0.00 0.00 0.00 0.00 0.00 0.00 0.00 0.00 0.00 0.00 0.00 0.00 0.00 0.00 0.00 0.00 0.00 0.00 0.00 0.00 0.00 0.00 0.00 0.00 0.00 0.00 0.00 0.00 336.00 340.00 344.00 346.00 350.00 354.00 358.00 361.00 363.00 365.00 365.00 364.00 364.00 364.00 364.00 364.00 365.00 365.00 365.00 363.00 363.00 360.00 0.00 0.00 0.00 0.00 0.00 775.00 777.00 778.00 0.00 0.00 0.00 0.00 0.00 0.00 0.00 0.00 0.00 0.00 0.00 0.00 0.00 770.00 760.00 755.00 751.00 748.00 746.00 745.00 744.00 743.00 742.00 741.00 741.00 740.00 740.00 739.00 739.00 739.00 739.00 739.00 739.00 739.00 740.00 740.00 741.00 742.00 743.00 743.00 743.00 744.00 744.00 745.00 747.00 749.00 750.00 753.00 754.00 756.00 758.00 760.00 762.00 764.00 767.00 770.00 772.00 775.00 778.00 781.00 785.00 790.00 795.00 800.00 806.00 811.00 817.00 824.00 0.00 1149.00 1153.00 1150.00 0.00 0.00 0.00 841.00 839.00 836.00 836.00 836.00 836.00 836.00 837.00 837.00 838.00 839.00 840.00 840.00 840.00 839.00 839.00 839.00 839.00 838.00 838.00 836.00 833.00 829.00 823.00 816.00 810.00 804.00 800.00 797.00 794.00 793.00 792.00 791.00 790.00 789.00 786.00 783.00 778.00 773.00 769.00 765.00 763.00 761.00 759.00 759.00 758.00 757.00 757.00 757.00 756.00 755.00 755.00 754.00 754.00 754.00 754.00 753.00 752.00 752.00 751.00 751.00 750.00 750.00 749.00 748.00 748.00 748.00 748.00 747.00 747.00 746.00 745.00 745.00 744.00 743.00 741.00 740.00 737.00 735.00 733.00 732.00 730.00 729.00 728.00 727.00 728.00 728.00 729.00 730.00 731.00 732.00 732.00 733.00 733.00 733.00 734.00 734.00 734.00 734.00 734.00 734.00 733.00 734.00 733.00 733.00 733.00 734.00 733.00 733.00 734.00 734.00 734.00 735.00 736.00 737.00 738.00 739.00 740.00 742.00 743.00 743.00 744.00 745.00 745.00 747.00 748.00 749.00 750.00 750.00 751.00 751.00 752.00 752.00 753.00 753.00 753.00 753.00 754.00 754.00 755.00 755.00 756.00 756.00 756.00 757.00 757.00 757.00 758.00 759.00 760.00 761.00 763.00 764.00 766.00 767.00 768.00 769.00 770.00 771.00 772.00 774.00 775.00 776.00 777.00 776.00 776.00 776.00 777.00 778.00 780.00 781.00 782.00 783.00 784.00 784.00 786.00 787.00 788.00 789.00 790.00 791.00 794.00 800.00 810.00 861.00 900.00 914.00 920.00 922.00 922.00 921.00 920.00 919.00 919.00 917.00 916.00 915.00 913.00 911.00 911.00 910.00 909.00 909.00 908.00 907.00 907.00 907.00 907.00 907.00 906.00 904.00 900.00 895.00 887.00 0.00 0.00 0.00 0.00 0.00 0.00 0.00 0.00 0.00 0.00 0.00 0.00 0.00 0.00 0.00 0.00 0.00 0.00 0.00 0.00 0.00 0.00 0.00 0.00 0.00 0.00 0.00 0.00 0.00 0.00 0.00 0.00 0.00 0.00 0.00 0.00 0.00 2339.00 2334.00 2328.00 2320.00 2312.00 2306.00 2300.00 2292.00 2287.00 2282.00 2277.00 2271.00 2267.00 2259.00 2253.00 2247.00 2240.00 2233.00 2228.00 2221.00 2213.00 2200.00 2190.00 2149.00 0.00 2078.00 2066.00 2058.00 2052.00 2050.00 2049.00 2048.00 2049.00 0.00 0.00 0.00 0.00 0.00 0.00 0.00 0.00 0.00 0.00 0.00 0.00 0.00 0.00 0.00 0.00 0.00 0.00 0.00 0.00 0.00 0.00 0.00 0.00 0.00
0.00 0.00 0.00 0.00 0.00 0.00 0.00 0.00 0.00 0.00 0.00 0.00 0.00 0.00 0.00 0.00 0.00 0.00 0.00 0.00 0.00 0.00 0.00 0.00 0.00 0.00 0.00 0.00 0.00 0.00 0.00 0.00 0.00 0.00 0.00 0.00 0.00 0.00 0.00 0.00 0.00 0.00 0.00 0.00 0.00 0.00 0.00 0.00 0.00 0.00 0.00 0.00 0.00 0.00 0.00 0.00 0.00 0.00 0.00 0.00 0.00 0.00 0.00 0.00 0.00 0.00 0.00 0.00 0.00 0.00 0.00 0.00 0.00 0.00 0.00 0.00 0.00 0.00 0.00 0.00 0.00 0.00 0.00 0.00 0.00 0.00 0.00 0.00 0.00 0.00 0.00 0.00 0.00 0.00 0.00 0.00 0.00 0.00 0.00 0.00 0.00 0.00 0.00 0.00 0.00 0.00 0.00 0.00 334.00 336.00 340.00 345.00 348.00 352.00 355.00 358.00 361.00 364.00 365.00 365.00 365.00 364.00 364.00 364.00 365.00 365.00 365.00 365.00 364.00 363.00 360.00 0.00 0.00 0.00 0.00 0.00 775.00 776.00 777.00 0.00 0.00 0.00 0.00 0.00 0.00 0.00 0.00 0.00 0.00 1003.00 1015.00 0.00 0.00 764.00 757.00 753.00 749.00 747.00 746.00 745.00 744.00 743.00 742.00 742.00 741.00 740.00 740.00 740.00 739.00 739.00 738.00 738.00 739.00 739.00 740.00 740.00 741.00 742.00 743.00 743.00 743.00 744.00 745.00 746.00 748.00 750.00 752.00 754.00 756.00 757.00 759.00 760.00 763.00 765.00 768.00 771.00 774.00 777.00 780.00 783.00 787.00 792.00 798.00 804.00 809.00 814.00 820.00 0.00 0.00 1151.00 0.00 0.00 0.00 0.00 840.00 838.00 836.00 836.00 836.00 836.00 837.00 838.00 838.00 838.00 840.00 840.00 839.00 840.00 839.00 839.00 839.00 839.00 839.00 838.00 836.00 833.00 827.00 821.00 814.00 807.00 802.00 798.00 796.00 794.00 792.00 791.00 790.00 789.00 787.00 785.00 782.00 777.00 772.00 768.00 765.00 762.00 760.00 759.00 758.00 758.00 757.00 757.00 757.00 756.00 755.00 755.00 754.00 754.00 753.00 753.00 752.00 751.00 751.00 751.00 750.00 750.00 749.00 749.00 748.00 748.00 748.00 748.00 747.00 747.00 747.00 746.00 745.00 744.00 743.00 741.00 739.00 737.00 735.00 733.00 732.00 730.00 729.00 728.00 727.00 727.00 727.00 728.00 729.00 730.00 731.00 732.00 733.00 733.00 733.00 733.00 733.00 733.00 734.00 733.00 733.00 733.00 734.00 733.00 733.00 733.00 734.00 733.00 733.00 733.00 734.00 734.00 735.00 736.00 737.00 738.00 739.00 740.00 742.00 742.00 743.00 744.00 744.00 745.00 746.00 747.00 748.00 749.00 750.00 750.00 751.00 751.00 751.00 752.00 752.00 753.00 753.00 754.00 754.00 754.00 755.00 755.00 756.00 756.00 756.00 757.00 757.00 758.00 759.00 760.00 762.00 763.00 764.00 766.00 766.00 768.00 768.00 770.00 770.00 771.00 772.00 774.00 775.00 776.00 776.00 775.00 776.00 776.00 778.00 779.00 780.00 781.00 782.00 783.00 784.00 785.00 786.00 787.00 788.00 789.00 791.00 793.00 799.00 811.00 856.00 902.00 914.00 920.00 922.00 922.00 921.00 920.00 919.00 919.00 917.00 916.00 915.00 913.00 911.00 911.00 910.00 910.00 909.00 909.00 908.00 908.00 908.00 908.00 907.00 906.00 903.00 899.00 894.00 885.00 0.00 0.00 0.00 0.00 0.00 0.00 0.00 0.00 0.00 0.00 0.00 0.00 0.00 0.00 0.00 0.00 0.00 0.00 0.00 0.00 0.00 0.00 0.00 0.00 0.00 0.00 0.00 0.00 0.00 0.00 0.00 0.00 0.00 0.00 0.00 0.00 2347.00 2338.00 2333.00 2327.00 2321.00 2313.00 2307.00 2301.00 2293.00 2288.00 2282.00 2276.00 2270.00 2266.00 2259.00 2253.00 2248.00 2241.00 2234.00 2227.00 2220.00 2213.00 2202.00 2185.00 2154.00 2104.00 2084.00 2067.00 2060.00 2054.00 2051.00 2049.00 2048.00 2048.00 0.00 0.00 0.00 0.00 0.00 0.00 0.00 0.00 0.00 0.00 0.00 0.00 0.00 0.00 0.00 0.00 0.00 0.00 0.00 0.00 0.00 0.00 0.00 0.00 0.00
0.00 0.00 0.00 0.00 0.00 0.00 0.00 0.00 0.00 0.00 0.00 0.00 0.00 0.00 0.00 0.00 0.00 0.00 0.00 0.00 0.00 0.00 0.00 0.00 0.00 0.00 0.00 0.00 0.00 0.00 0.00 0.00 0.00 0.00 0.00 0.00 0.00 0.00 0.00 0.00 0.00 0.00 0.00 0.00 0.00 0.00 0.00 0.00 0.00 0.00 0.00 0.00 0.00 0.00 0.00 0.00 0.00 0.00 0.00 0.00 0.00 0.00 0.00 0.00 0.00 0.00 0.00 0.00 0.00 0.00 0.00 0.00 0.00 0.00 0.00 0.00 0.00 0.00 0.00 0.00 0.00 0.00 0.00 0.00 0.00 0.00 0.00 0.00 0.00 0.00 0.00 0.00 0.00 0.00 0.00 0.00 0.00 0.00 0.00 0.00 0.00 0.00 0.00 0.00 0.00 0.00 0.00 0.00 0.00 336.00 340.00 343.00 347.00 351.00 353.00 357.00 361.00 363.00 365.00 365.00 364.00 364.00 364.00 363.00 364.00 364.00 364.00 364.00 363.00 362.00 360.00 0.00 0.00 0.00 0.00 0.00 774.00 775.00 777.00 0.00 0.00 0.00 0.00 0.00 0.00 0.00 0.00 0.00 0.00 1020.00 1023.00 1022.00 0.00 777.00 761.00 756.00 752.00 749.00 748.00 746.00 745.00 744.00 743.00 742.00 742.00 741.00 740.00 740.00 739.00 739.00 739.00 739.00 739.00 738.00 739.00 739.00 740.00 741.00 742.00 742.00 743.00 744.00 745.00 746.00 748.00 750.00 751.00 753.00 755.00 756.00 758.00 759.00 761.00 763.00 767.00 770.00 773.00 775.00 778.00 781.00 785.00 789.00 795.00 801.00 806.00 811.00 815.00 821.00 0.00 0.00 0.00 0.00 0.00 843.00 840.00 838.00 836.00 836.00 836.00 837.00 837.00 838.00 838.00 839.00 841.00 840.00 840.00 841.00 840.00 840.00 840.00 840.00 840.00 839.00 837.00 832.00 826.00 818.00 810.00 804.00 800.00 797.00 794.00 793.00 791.00 790.00 789.00 787.00 786.00 783.00 780.00 775.00 770.00 766.00 763.00 761.00 759.00 758.00 757.00 757.00 757.00 757.00 756.00 756.00 755.00 754.00 754.00 753.00 752.00 752.00 751.00 751.00 750.00 750.00 750.00 749.00 749.00 748.00 748.00 747.00 747.00 747.00 746.00 746.00 746.00 745.00 744.00 744.00 742.00 741.00 739.00 737.00 736.00 734.00 732.00 730.00 729.00 728.00 727.00 727.00 727.00 728.00 729.00 730.00 731.00 731.00 732.00 732.00 733.00 733.00 733.00 733.00 733.00 733.00 733.00 733.00 733.00 733.00 733.00 733.00 734.00 733.00 733.00 734.00 734.00 734.00 735.00 736.00 736.00 737.00 738.00 740.00 741.00 742.00 742.00 743.00 744.00 745.00 746.00 747.00 748.00 749.00 750.00 750.00 751.00 751.00 751.00 752.00 752.00 753.00 753.00 754.00 754.00 754.00 754.00 755.00 755.00 756.00 756.00 757.00 757.00 758.00 758.00 760.00 761.00 762.00 763.00 765.00 766.00 767.00 767.00 769.00 769.00 770.00 772.00 773.00 775.00 776.00 776.00 775.00 776.00 776.00 778.00 780.00 780.00 781.00 782.00 783.00 783.00 785.00 786.00 787.00 788.00 789.00 790.00 793.00 799.00 811.00 862.00 900.00 914.00 919.00 921.00 922.00 921.00 919.00 918.00 918.00 916.00 914.00 914.00 912.00 911.00 910.00 910.00 909.00 909.00 909.00 908.00 908.00 908.00 908.00 907.00 906.00 903.00 899.00 893.00 883.00 0.00 0.00 0.00 0.00 0.00 0.00 0.00 0.00 0.00 0.00 0.00 0.00 0.00 0.00 0.00 0.00 0.00 0.00 0.00 0.00 0.00 0.00 0.00 0.00 0.00 0.00 0.00 0.00 0.00 0.00 0.00 0.00 0.00 0.00 0.00 0.00 0.00 2340.00 2333.00 2325.00 2318.00 2311.00 2305.00 2299.00 2293.00 2287.00 2281.00 2274.00 2269.00 2265.00 2259.00 2253.00 2248.00 2240.00 2233.00 2227.00 2220.00 2213.00 2202.00 2190.00 2162.00 0.00 2081.00 2068.00 2060.00 2054.00 2051.00 2049.00 2049.00 2049.00 0.00 0.00 0.00 0.00 0.00 0.00 0.00 0.00 0.00 0.00 0.00 0.00 0.00 0.00 0.00 0.00 0.00 0.00 0.00 0.00 0.00 0.00 0.00 0.00 0.00
0.00 0.00 0.00 0.00 0.00 0.00 0.00 0.00 0.00 0.00 0.00 0.00 0.00 0.00 0.00 0.00 0.00 0.00 0.00 0.00 0.00 0.00 0.00 0.00 0.00 0.00 0.00 0.00 0.00 0.00 0.00 0.00 0.00 0.00 0.00 0.00 0.00 0.00 0.00 0.00 0.00 0.00 0.00 0.00 0.00 0.00 0.00 0.00 0.00 0.00 0.00 0.00 0.00 0.00 0.00 0.00 0.00 0.00 0.00 0.00 0.00 0.00 0.00 0.00 0.00 0.00 0.00 0.00 0.00 0.00 0.00 0.00 0.00 0.00 0.00 0.00 0.00 0.00 0.00 0.00 0.00 0.00 0.00 0.00 0.00 0.00 0.00 0.00 0.00 0.00 0.00 0.00 0.00 0.00 0.00 0.00 0.00 0.00 0.00 0.00 0.00 0.00 0.00 0.00 0.00 0.00 0.00 0.00 0.00 337.00 341.00 345.00 347.00 350.00 353.00 356.00 360.00 363.00 365.00 365.00 364.00 364.00 364.00 363.00 364.00 364.00 364.00 363.00 362.00 361.00 359.00 0.00 0.00 0.00 0.00 0.00 772.00 773.00 776.00 0.00 0.00 0.00 0.00 0.00 0.00 0.00 0.00 0.00 0.00 1029.00 1030.00 1030.00 1028.00 0.00 765.00 759.00 754.00 750.00 748.00 747.00 746.00 744.00 743.00 743.00 742.00 741.00 741.00 740.00 740.00 739.00 739.00 738.00 738.00 738.00 738.00 739.00 740.00 740.00 742.00 742.00 743.00 744.00 745.00 746.00 748.00 750.00 751.00 752.00 754.00 756.00 757.00 758.00 760.00 762.00 765.00 768.00 771.00 774.00 777.00 780.00 783.00 787.00 792.00 798.00 802.00 806.00 808.00 811.00 813.00 0.00 0.00 0.00 0.00 841.00 838.00 837.00 836.00 836.00 837.00 837.00 838.00 839.00 839.00 840.00 841.00 841.00 841.00 841.00 840.00 840.00 840.00 840.00 840.00 839.00 836.00 831.00 824.00 816.00 808.00 802.00 798.00 795.00 793.00 791.00 790.00 788.00 787.00 786.00 784.00 782.00 778.00 774.00 769.00 766.00 763.00 760.00 758.00 757.00 757.00 757.00 757.00 756.00 756.00 755.00 754.00 754.00 753.00 753.00 752.00 751.00 751.00 750.00 750.00 750.00 750.00 749.00 748.00 748.00 747.00 747.00 747.00 747.00 746.00 746.00 746.00 744.00 744.00 743.00 741.00 740.00 739.00 737.00 735.00 733.00 731.00 730.00 728.00 727.00 726.00 726.00 726.00 727.00 728.00 730.00 730.00 731.00 731.00 732.00 732.00 733.00 732.00 732.00 733.00 732.00 732.00 733.00 733.00 733.00 733.00 733.00 734.00 733.00 733.00 734.00 734.00 735.00 735.00 736.00 736.00 737.00 738.00 739.00 740.00 741.00 742.00 742.00 744.00 744.00 746.00 747.00 748.00 748.00 749.00 749.00 750.00 751.00 751.00 752.00 752.00 753.00 753.00 754.00 754.00 754.00 755.00 755.00 756.00 756.00 756.00 757.00 757.00 758.00 758.00 759.00 760.00 761.00 762.00 764.00 765.00 766.00 767.00 768.00 768.00 770.00 771.00 773.00 775.00 776.00 776.00 776.00 776.00 777.00 779.00 780.00 781.00 782.00 782.00 783.00 783.00 785.00 786.00 787.00 787.00 789.00 789.00 792.00 798.00 812.00 856.00 899.00 913.00 918.00 920.00 920.00 919.00 918.00 917.00 916.00 913.00 912.00 910.00 909.00 908.00 908.00 908.00 909.00 909.00 908.00 908.00 908.00 908.00 908.00 907.00 906.00 902.00 897.00 889.00 877.00 0.00 0.00 0.00 0.00 0.00 0.00 0.00 0.00 0.00 0.00 0.00 0.00 0.00 0.00 0.00 0.00 0.00 0.00 0.00 0.00 0.00 0.00 0.00 0.00 0.00 0.00 0.00 0.00 0.00 0.00 0.00 0.00 0.00 0.00 0.00 0.00 0.00 2339.00 2332.00 2325.00 2319.00 2310.00 2304.00 2299.00 2292.00 2287.00 2281.00 2274.00 2269.00 2264.00 2259.00 2255.00 2250.00 2241.00 2234.00 2227.00 2221.00 2213.00 2204.00 2190.00 2171.00 0.00 0.00 2072.00 2061.00 2054.00 2050.00 2048.00 2047.00 2048.00 2051.00 0.00 0.00 0.00 0.00 0.00 0.00 0.00 0.00 0.00 0.00 0.00 0.00 0.00 0.00 0.00 0.00 0.00 0.00 0.00 0.00 0.00 0.00 0.00 0.00
0.00 0.00 0.00 0.00 0.00 0.00 0.00 0.00 0.00 0.00 0.00 0.00 0.00 0.00 0.00 0.00 0.00 0.00 0.00 0.00 0.00 0.00 0.00 0.00 0.00 0.00 0.00 0.00 0.00 0.00 0.00 0.00 0.00 0.00 0.00 0.00 0.00 0.00 0.00 0.00 0.00 0.00 0.00 0.00 0.00 0.00 0.00 0.00 0.00 0.00 0.00 0.00 0.00 0.00 0.00 0.00 0.00 0.00 0.00 0.00 0.00 0.00 0.00 0.00 0.00 0.00 0.00 0.00 0.00 0.00 0.00 0.00 0.00 0.00 0.00 0.00 0.00 0.00 0.00 0.00 0.00 0.00 0.00 0.00 0.00 0.00 0.00 0.00 0.00 0.00 0.00 0.00 0.00 0.00 0.00 0.00 0.00 0.00 0.00 0.00 0.00 0.00 0.00 0.00 0.00 0.00 0.00 0.00 0.00 339.00 343.00 345.00 347.00 351.00 354.00 357.00 361.00 363.00 364.00 364.00 364.00 363.00 363.00 363.00 364.00 364.00 364.00 363.00 363.00 361.00 359.00 0.00 0.00 0.00 0.00 0.00 770.00 772.00 775.00 0.00 0.00 0.00 0.00 0.00 0.00 0.00 0.00 0.00 0.00 1034.00 1036.00 1036.00 1034.00 0.00 0.00 763.00 758.00 753.00 751.00 749.00 747.00 745.00 744.00 743.00 742.00 741.00 741.00 740.00 740.00 739.00 738.00 738.00 738.00 737.00 738.00 738.00 739.00 740.00 741.00 742.00 743.00 744.00 745.00 746.00 748.00 749.00 751.00 752.00 754.00 755.00 756.00 757.00 759.00 762.00 764.00 767.00 771.00 773.00 776.00 779.00 781.00 785.00 788.00 792.00 796.00 799.00 800.00 803.00 805.00 808.00 0.00 0.00 840.00 838.00 838.00 837.00 836.00 836.00 837.00 837.00 838.00 839.00 839.00 840.00 841.00 841.00 840.00 841.00 840.00 840.00 840.00 840.00 840.00 839.00 836.00 830.00 821.00 812.00 805.00 800.00 797.00 794.00 792.00 790.00 788.00 786.00 785.00 784.00 782.00 780.00 776.00 772.00 768.00 764.00 761.00 759.00 758.00 757.00 756.00 756.00 756.00 756.00 755.00 755.00 754.00 753.00 753.00 752.00 751.00 750.00 750.00 750.00 749.00 749.00 749.00 749.00 748.00 748.00 747.00 747.00 746.00 746.00 745.00 745.00 745.00 744.00 743.00 742.00 741.00 740.00 738.00 737.00 735.00 734.00 732.00 730.00 728.00 727.00 726.00 726.00 726.00 727.00 728.00 729.00 730.00 731.00 731.00 731.00 732.00 732.00 732.00 732.00 733.00 732.00 732.00 733.00 733.00 732.00 733.00 732.00 733.00 732.00 733.00 733.00 734.00 734.00 735.00 736.00 736.00 737.00 738.00 739.00 740.00 741.00 742.00 742.00 744.00 745.00 746.00 747.00 748.00 749.00 749.00 750.00 750.00 750.00 751.00 752.00 752.00 753.00 753.00 754.00 754.00 755.00 755.00 755.00 756.00 756.00 756.00 756.00 757.00 757.00 758.00 759.00 760.00 761.00 762.00 764.00 765.00 766.00 766.00 768.00 768.00 770.00 771.00 774.00 775.00 776.00 776.00 776.00 776.00 777.00 779.00 780.00 780.00 782.00 782.00 783.00 783.00 784.00 785.00 786.00 787.00 788.00 789.00 792.00 798.00 811.00 854.00 895.00 911.00 917.00 919.00 918.00 917.00 915.00 914.00 911.00 909.00 907.00 905.00 905.00 905.00 906.00 907.00 908.00 908.00 908.00 908.00 908.00 907.00 906.00 905.00 903.00 898.00 893.00 884.00 0.00 0.00 0.00 0.00 0.00 0.00 0.00 0.00 0.00 0.00 0.00 0.00 0.00 0.00 0.00 0.00 0.00 0.00 0.00 0.00 0.00 0.00 0.00 0.00 0.00 0.00 0.00 0.00 0.00 0.00 0.00 0.00 0.00 0.00 0.00 0.00 0.00 0.00 2340.00 2331.00 2326.00 2317.00 2309.00 2304.00 2298.00 2292.00 2287.00 2282.00 2274.00 2269.00 2265.00 2259.00 2255.00 2249.00 2242.00 2233.00 2226.00 2219.00 2213.00 2205.00 2194.00 2174.00 2138.00 2088.00 2072.00 2062.00 2055.00 2051.00 2048.00 2048.00 2047.00 0.00 0.00 0.00 0.00 0.00 0.00 0.00 0.00 0.00 0.00 0.00 0.00 0.00 0.00 0.00 0.00 0.00 0.00 0.00 0.00 0.00 0.00 0.00 0.00 0.00
0.00 0.00 0.00 0.00 0.00 0.00 0.00 0.00 0.00 0.00 0.00 0.00 0.00 0.00 0.00 0.00 0.00 0.00 0.00 0.00 0.00 0.00 0.00 0.00 0.00 0.00 0.00 0.00 0.00 0.00 0.00 0.00 0.00 0.00 0.00 0.00 0.00 0.00 0.00 0.00 0.00 0.00 0.00 0.00 0.00 0.00 0.00 0.00 0.00 0.00 0.00 0.00 0.00 0.00 0.00 0.00 0.00 0.00 0.00 0.00 0.00 0.00 0.00 0.00 0.00 0.00 0.00 0.00 0.00 0.00 0.00 0.00 0.00 0.00 0.00 0.00 0.00 0.00 0.00 0.00 0.00 0.00 0.00 0.00 0.00 0.00 0.00 0.00 0.00 0.00 0.00 0.00 0.00 0.00 0.00 0.00 0.00 0.00 0.00 0.00 0.00 0.00 0.00 0.00 0.00 0.00 0.00 0.00 338.00 340.00 343.00 345.00 348.00 350.00 353.00 357.00 360.00 362.00 364.00 364.00 363.00 363.00 363.00 363.00 363.00 364.00 364.00 363.00 362.00 361.00 359.00 0.00 0.00 0.00 0.00 0.00 770.00 771.00 775.00 0.00 0.00 0.00 0.00 0.00 0.00 0.00 0.00 0.00 0.00 1039.00 1042.00 1042.00 1041.00 1037.00 0.00 767.00 760.00 756.00 753.00 750.00 748.00 746.00 745.00 743.00 743.00 741.00 741.00 740.00 740.00 739.00 738.00 738.00 738.00 737.00 738.00 738.00 739.00 740.00 741.00 742.00 743.00 744.00 746.00 747.00 748.00 749.00 750.00 751.00 753.00 754.00 755.00 757.00 759.00 761.00 763.00 766.00 769.00 772.00 774.00 776.00 778.00 780.00 783.00 786.00 788.00 791.00 793.00 796.00 799.00 803.00 809.00 820.00 830.00 834.00 836.00 837.00 837.00 837.00 838.00 838.00 839.00 840.00 840.00 840.00 841.00 841.00 841.00 841.00 841.00 840.00 840.00 841.00 841.00 839.00 835.00 829.00 819.00 809.00 802.00 796.00 794.00 792.00 789.00 788.00 786.00 784.00 783.00 782.00 780.00 778.00 775.00 770.00 766.00 763.00 760.00 758.00 757.00 756.00 755.00 756.00 755.00 755.00 754.00 754.00 753.00 753.00 752.00 752.00 751.00 750.00 749.00 749.00 749.00 749.00 749.00 748.00 747.00 747.00 747.00 746.00 746.00 746.00 745.00 744.00 744.00 743.00 743.00 742.00 741.00 740.00 739.00 737.00 735.00 733.00 731.00 730.00 728.00 727.00 726.00 726.00 725.00 726.00 727.00 728.00 729.00 730.00 730.00 731.00 732.00 732.00 732.00 732.00 732.00 732.00 732.00 732.00 732.00 732.00 732.00 732.00 733.00 732.00 733.00 733.00 734.00 734.00 735.00 736.00 736.00 737.00 738.00 739.00 740.00 741.00 741.00 742.00 743.00 745.00 745.00 746.00 748.00 748.00 749.00 750.00 750.00 750.00 751.00 751.00 752.00 753.00 753.00 753.00 754.00 754.00 755.00 755.00 756.00 756.00 756.00 756.00 757.00 758.00 758.00 759.00 760.00 761.00 762.00 764.00 765.00 766.00 766.00 767.00 768.00 769.00 771.00 773.00 774.00 775.00 776.00 776.00 776.00 777.00 779.00 780.00 781.00 782.00 783.00 784.00 784.00 785.00 786.00 786.00 787.00 788.00 788.00 791.00 798.00 810.00 852.00 889.00 908.00 915.00 917.00 916.00 914.00 911.00 908.00 905.00 903.00 900.00 900.00 900.00 901.00 903.00 906.00 907.00 908.00 909.00 908.00 908.00 907.00 905.00 903.00 900.00 895.00 886.00 876.00 0.00 0.00 0.00 0.00 0.00 0.00 0.00 0.00 0.00 0.00 0.00 0.00 0.00 0.00 0.00 0.00 0.00 0.00 0.00 0.00 0.00 0.00 0.00 0.00 0.00 0.00 0.00 0.00 0.00 0.00 0.00 0.00 0.00 0.00 0.00 0.00 0.00 2344.00 2338.00 2330.00 2325.00 2317.00 2309.00 2304.00 2298.00 2292.00 2288.00 2282.00 2273.00 2270.00 2265.00 2260.00 2255.00 2250.00 2241.00 2233.00 2227.00 2220.00 2214.00 2207.00 2195.00 2179.00 2143.00 2092.00 2076.00 2064.00 2056.00 2050.00 2046.00 2046.00 2046.00 2049.00 0.00 0.00 0.00 0.00 0.00 0.00 0.00 0.00 0.00 0.00 0.00 0.00 0.00 0.00 0.00 0.00 0.00 0.00 0.00 0.00 0.00 0.00 0.00 0.00
0.00 0.00 0.00 0.00 0.00 0.00 0.00 0.00 0.00 0.00 0.00 0.00 0.00 0.00 0.00 0.00 0.00 0.00 0.00 0.00 0.00 0.00 0.00 0.00 0.00 0.00 0.00 0.00 0.00 0.00 0.00 0.00 0.00 0.00 0.00 0.00 0.00 0.00 0.00 0.00 0.00 0.00 0.00 0.00 0.00 0.00 0.00 0.00 0.00 0.00 0.00 0.00 0.00 0.00 0.00 0.00 0.00 0.00 0.00 0.00 0.00 0.00 0.00 0.00 0.00 0.00 0.00 0.00 0.00 0.00 0.00 0.00 0.00 0.00 0.00 0.00 0.00 0.00 0.00 0.00 0.00 0.00 0.00 0.00 0.00 0.00 0.00 0.00 0.00 0.00 0.00 0.00 0.00 0.00 0.00 0.00 0.00 0.00 0.00 0.00 0.00 0.00 0.00 0.00 0.00 0.00 0.00 0.00 339.00 341.00 343.00 344.00 347.00 349.00 352.00 356.00 360.00 362.00 363.00 364.00 363.00 363.00 362.00 362.00 363.00 364.00 363.00 362.00 361.00 360.00 359.00 0.00 0.00 0.00 0.00 0.00 770.00 770.00 0.00 0.00 0.00 0.00 0.00 0.00 0.00 0.00 0.00 0.00 0.00 1042.00 1047.00 1048.00 1047.00 1043.00 1035.00 791.00 764.00 759.00 754.00 751.00 749.00 747.00 745.00 743.00 742.00 741.00 740.00 739.00 739.00 739.00 738.00 738.00 738.00 738.00 738.00 739.00 740.00 740.00 741.00 742.00 743.00 744.00 745.00 746.00 748.00 749.00 749.00 750.00 752.00 753.00 754.00 756.00 757.00 760.00 762.00 765.00 767.00 770.00 771.00 773.00 774.00 775.00 777.00 779.00 780.00 783.00 786.00 790.00 795.00 800.00 805.00 814.00 824.00 830.00 834.00 836.00 837.00 837.00 838.00 839.00 839.00 840.00 840.00 840.00 841.00 841.00 841.00 841.00 841.00 841.00 840.00 841.00 840.00 838.00 833.00 825.00 815.00 805.00 799.00 794.00 792.00 790.00 787.00 785.00 784.00 782.00 781.00 781.00 779.00 776.00 772.00 768.00 764.00 761.00 759.00 757.00 757.00 756.00 755.00 755.00 755.00 754.00 754.00 753.00 752.00 752.00 751.00 751.00 751.00 750.00 749.00 749.00 748.00 748.00 748.00 748.00 747.00 747.00 747.00 746.00 746.00 745.00 744.00 744.00 743.00 742.00 742.00 742.00 741.00 740.00 738.00 737.00 735.00 733.00 732.00 730.00 728.00 727.00 726.00 726.00 725.00 726.00 727.00 728.00 728.00 730.00 730.00 731.00 731.00 732.00 731.00 732.00 732.00 732.00 732.00 732.00 732.00 732.00 732.00 732.00 732.00 732.00 732.00 733.00 733.00 734.00 735.00 735.00 736.00 737.00 738.00 739.00 739.00 740.00 741.00 742.00 743.00 744.00 745.00 746.00 748.00 748.00 749.00 750.00 751.00 751.00 752.00 752.00 752.00 753.00 753.00 753.00 754.00 754.00 755.00 755.00 756.00 756.00 756.00 757.00 757.00 758.00 758.00 759.00 760.00 761.00 763.00 764.00 765.00 766.00 766.00 767.00 768.00 769.00 770.00 773.00 774.00 775.00 775.00 776.00 776.00 777.00 779.00 781.00 781.00 782.00 783.00 784.00 784.00 786.00 787.00 787.00 787.00 788.00 788.00 791.00 798.00 810.00 843.00 885.00 904.00 911.00 913.00 911.00 908.00 903.00 899.00 896.00 894.00 892.00 893.00 895.00 899.00 902.00 905.00 908.00 909.00 908.00 908.00 907.00 905.00 902.00 899.00 896.00 890.00 881.00 0.00 0.00 0.00 0.00 0.00 0.00 0.00 0.00 0.00 0.00 0.00 0.00 0.00 0.00 0.00 0.00 0.00 0.00 0.00 0.00 0.00 0.00 0.00 0.00 0.00 0.00 0.00 0.00 0.00 0.00 0.00 0.00 0.00 0.00 0.00 0.00 0.00 0.00 0.00 0.00 2331.00 2325.00 2320.00 2312.00 2306.00 2299.00 2294.00 2288.00 2283.00 2275.00 2272.00 2265.00 2259.00 2255.00 2248.00 2242.00 2233.00 2227.00 2221.00 2215.00 2207.00 2197.00 2182.00 2146.00 2096.00 2076.00 2064.00 2056.00 2050.00 2046.00 2046.00 2046.00 2048.00 0.00 0.00 0.00 0.00 0.00 0.00 0.00 0.00 0.00 0.00 0.00 0.00 0.00 0.00 0.00 0.00 0.00 0.00 0.00 0.00 0.00 0.00 0.00 0.00
0.00 0.00 0.00 0.00 0.00 0.00 0.00 0.00 0.00 0.00 0.00 0.00 0.00 0.00 0.00 0.00 0.00 0.00 0.00 0.00 0.00 0.00 0.00 0.00 0.00 0.00 0.00 0.00 0.00 0.00 0.00 0.00 0.00 0.00 0.00 0.00 0.00 0.00 0.00 0.00 0.00 0.00 0.00 0.00 0.00 0.00 0.00 0.00 0.00 0.00 0.00 0.00 0.00 0.00 0.00 0.00 0.00 0.00 0.00 0.00 0.00 0.00 0.00 0.00 0.00 0.00 0.00 0.00 0.00 0.00 0.00 0.00 0.00 0.00 0.00 0.00 0.00 0.00 0.00 0.00 0.00 0.00 0.00 0.00 0.00 0.00 0.00 0.00 0.00 0.00 0.00 0.00 0.00 0.00 0.00 0.00 0.00 0.00 0.00 0.00 0.00 0.00 0.00 0.00 0.00 0.00 0.00 338.00 339.00 342.00 344.00 346.00 349.00 351.00 353.00 357.00 360.00 362.00 363.00 363.00 363.00 363.00 363.00 363.00 363.00 364.00 363.00 362.00 361.00 359.00 358.00 0.00 0.00 0.00 0.00 768.00 770.00 769.00 774.00 0.00 0.00 0.00 0.00 0.00 0.00 0.00 0.00 0.00 1034.00 1047.00 1050.00 1052.00 1051.00 1049.00 1042.00 0.00 768.00 761.00 755.00 752.00 749.00 747.00 745.00 744.00 743.00 741.00 741.00 740.00 739.00 739.00 738.00 738.00 738.00 738.00 738.00 738.00 740.00 740.00 741.00 741.00 742.00 743.00 744.00 745.00 747.00 748.00 749.00 749.00 751.00 752.00 753.00 754.00 756.00 759.00 760.00 763.00 765.00 767.00 768.00 770.00 770.00 771.00 772.00 773.00 775.00 778.00 781.00 786.00 791.00 795.00 801.00 808.00 816.00 825.00 831.00 834.00 836.00 837.00 837.00 838.00 839.00 839.00 839.00 840.00 840.00 841.00 841.00 841.00 841.00 841.00 840.00 841.00 840.00 837.00 832.00 823.00 812.00 802.00 796.00 791.00 789.00 787.00 785.00 783.00 782.00 780.00 779.00 778.00 776.00 774.00 771.00 766.00 762.00 760.00 758.00 756.00 756.00 755.00 755.00 755.00 754.00 754.00 753.00 753.00 752.00 752.00 751.00 751.00 751.00 750.00 749.00 749.00 748.00 748.00 747.00 747.00 747.00 747.00 746.00 746.00 745.00 745.00 744.00 743.00 743.00 742.00 742.00 741.00 741.00 739.00 738.00 736.00 735.00 733.00 732.00 730.00 729.00 727.00 726.00 725.00 725.00 725.00 726.00 727.00 728.00 729.00 730.00 731.00 731.00 731.00 731.00 731.00 732.00 731.00 731.00 731.00 731.00 731.00 731.00 732.00 732.00 732.00 732.00 732.00 733.00 733.00 734.00 735.00 736.00 737.00 738.00 739.00 739.00 740.00 741.00 742.00 743.00 744.00 745.00 746.00 747.00 748.00 749.00 750.00 750.00 751.00 751.00 751.00 752.00 753.00 753.00 753.00 753.00 754.00 755.00 755.00 756.00 756.00 756.00 757.00 757.00 758.00 758.00 759.00 760.00 761.00 763.00 764.00 765.00 765.00 765.00 766.00 767.00 768.00 770.00 773.00 774.00 775.00 775.00 775.00 776.00 777.00 778.00 780.00 781.00 782.00 783.00 784.00 785.00 786.00 787.00 786.00 786.00 787.00 787.00 790.00 796.00 810.00 841.00 879.00 899.00 905.00 908.00 904.00 899.00 893.00 889.00 886.00 886.00 887.00 889.00 892.00 897.00 901.00 905.00 907.00 908.00 907.00 906.00 905.00 902.00 900.00 897.00 892.00 885.00 876.00 0.00 0.00 0.00 0.00 0.00 0.00 0.00 0.00 0.00 0.00 0.00 0.00 0.00 0.00 0.00 0.00 0.00 0.00 0.00 0.00 0.00 0.00 0.00 0.00 0.00 0.00 0.00 0.00 0.00 0.00 0.00 0.00 0.00 0.00 0.00 0.00 0.00 2349.00 2344.00 2337.00 2330.00 2324.00 2319.00 2312.00 2305.00 2298.00 2294.00 2289.00 2283.00 2276.00 2273.00 2266.00 2260.00 2255.00 2248.00 2241.00 2234.00 2227.00 2221.00 2216.00 2209.00 2200.00 2182.00 2156.00 0.00 2081.00 2067.00 2057.00 2051.00 2047.00 2045.00 2045.00 2047.00 0.00 0.00 0.00 0.00 0.00 0.00 0.00 0.00 0.00 0.00 0.00 0.00 0.00 0.00 0.00 0.00 0.00 0.00 0.00 0.00 0.00 0.00 0.00 0.00
0.00 0.00 0.00 0.00 0.00 0.00 0.00 0.00 0.00 0.00 0.00 0.00 0.00 0.00 0.00 0.00 0.00 0.00 0.00 0.00 0.00 0.00 0.00 0.00 0.00 0.00 0.00 0.00 0.00 0.00 0.00 0.00 0.00 0.00 0.00 0.00 0.00 0.00 0.00 0.00 0.00 0.00 0.00 0.00 0.00 0.00 0.00 0.00 0.00 0.00 0.00 0.00 0.00 0.00 0.00 0.00 0.00 0.00 0.00 0.00 0.00 0.00 0.00 0.00 0.00 0.00 0.00 0.00 0.00 0.00 0.00 0.00 0.00 0.00 0.00 0.00 0.00 0.00 0.00 0.00 0.00 0.00 0.00 0.00 0.00 0.00 0.00 0.00 0.00 0.00 0.00 0.00 0.00 0.00 0.00 0.00 0.00 0.00 0.00 0.00 0.00 0.00 0.00 0.00 0.00 0.00 0.00 0.00 339.00 341.00 344.00 347.00 349.00 351.00 353.00 357.00 360.00 362.00 363.00 363.00 363.00 363.00 363.00 363.00 364.00 364.00 364.00 362.00 361.00 359.00 357.00 0.00 0.00 0.00 0.00 769.00 770.00 771.00 0.00 0.00 0.00 0.00 0.00 0.00 0.00 0.00 0.00 0.00 1041.00 1049.00 1053.00 1055.00 1055.00 1053.00 1048.00 1038.00 791.00 766.00 759.00 755.00 752.00 749.00 747.00 744.00 743.00 742.00 741.00 740.00 740.00 739.00 738.00 738.00 738.00 738.00 738.00 738.00 739.00 740.00 740.00 741.00 741.00 743.00 744.00 745.00 746.00 747.00 747.00 748.00 750.00 750.00 751.00 753.00 756.00 758.00 759.00 762.00 763.00 764.00 764.00 765.00 765.00 766.00 767.00 769.00 771.00 774.00 777.00 782.00 787.00 792.00 796.00 802.00 809.00 817.00 826.00 831.00 834.00 836.00 836.00 838.00 838.00 839.00 840.00 841.00 841.00 841.00 841.00 842.00 841.00 841.00 841.00 841.00 839.00 836.00 829.00 819.00 807.00 798.00 792.00 788.00 786.00 784.00 782.00 780.00 779.00 777.00 776.00 776.00 774.00 772.00 769.00 765.00 761.00 759.00 757.00 756.00 755.00 755.00 754.00 754.00 754.00 753.00 753.00 752.00 752.00 752.00 751.00 751.00 750.00 749.00 749.00 748.00 747.00 747.00 746.00 746.00 746.00 746.00 746.00 745.00 744.00 744.00 743.00 742.00 742.00 742.00 741.00 741.00 740.00 739.00 738.00 736.00 735.00 734.00 732.00 731.00 729.00 728.00 726.00 726.00 725.00 725.00 725.00 726.00 727.00 728.00 729.00 730.00 730.00 730.00 731.00 731.00 731.00 731.00 730.00 730.00 730.00 731.00 731.00 731.00 731.00 731.00 731.00 731.00 732.00 733.00 734.00 735.00 736.00 737.00 738.00 739.00 740.00 740.00 741.00 742.00 743.00 744.00 745.00 746.00 747.00 748.00 749.00 749.00 750.00 751.00 751.00 751.00 752.00 753.00 753.00 753.00 754.00 754.00 754.00 755.00 755.00 756.00 756.00 757.00 757.00 758.00 759.00 759.00 760.00 761.00 763.00 764.00 765.00 765.00 765.00 766.00 767.00 767.00 769.00 772.00 772.00 774.00 774.00 774.00 774.00 775.00 776.00 777.00 779.00 780.00 782.00 783.00 784.00 786.00 786.00 786.00 786.00 786.00 787.00 790.00 796.00 809.00 830.00 870.00 892.00 899.00 900.00 895.00 887.00 881.00 878.00 878.00 882.00 884.00 889.00 894.00 898.00 902.00 905.00 907.00 906.00 906.00 904.00 902.00 899.00 897.00 895.00 891.00 884.00 875.00 0.00 0.00 0.00 0.00 0.00 0.00 0.00 0.00 0.00 0.00 0.00 0.00 0.00 0.00 0.00 0.00 0.00 0.00 0.00 0.00 0.00 0.00 0.00 0.00 0.00 0.00 0.00 0.00 0.00 0.00 0.00 0.00 0.00 0.00 0.00 0.00 0.00 0.00 2344.00 2336.00 2330.00 2322.00 2317.00 2311.00 2306.00 2298.00 2295.00 2290.00 2284.00 2277.00 2273.00 2266.00 2260.00 2254.00 2247.00 2240.00 2233.00 2228.00 2222.00 2217.00 2210.00 2201.00 2184.00 2159.00 2109.00 0.00 2069.00 2059.00 2052.00 2047.00 2045.00 2044.00 2044.00 0.00 0.00 0.00 0.00 0.00 0.00 0.00 0.00 0.00 0.00 0.00 0.00 0.00 0.00 0.00 0.00 0.00 0.00 0.00 0.00 0.00 0.00 0.00 0.00
0.00 0.00 0.00 0.00 0.00 0.00 0.00 0.00 0.00 0.00 0.00 0.00 0.00 0.00 0.00 0.00 0.00 0.00 0.00 0.00 0.00 0.00 0.00 0.00 0.00 0.00 1986.00 0.00 0.00 0.00 0.00 0.00 0.00 0.00 0.00 0.00 0.00 0.00 0.00 0.00 0.00 0.00 0.00 0.00 0.00 0.00 0.00 0.00 0.00 0.00 0.00 0.00 0.00 0.00 0.00 0.00 0.00 0.00 0.00 0.00 0.00 0.00 0.00 0.00 0.00 0.00 0.00 0.00 0.00 0.00 0.00 0.00 0.00 0.00 0.00 0.00 0.00 0.00 0.00 0.00 0.00 0.00 0.00 0.00 0.00 0.00 0.00 0.00 0.00 0.00 0.00 0.00 0.00 0.00 0.00 0.00 0.00 0.00 0.00 0.00 0.00 0.00 0.00 0.00 0.00 0.00 0.00 0.00 341.00 343.00 344.00 347.00 349.00 350.00 352.00 356.00 359.00 361.00 363.00 364.00 363.00 363.00 363.00 364.00 363.00 364.00 363.00 361.00 359.00 357.00 355.00 0.00 0.00 0.00 0.00 769.00 772.00 771.00 0.00 0.00 0.00 0.00 0.00 0.00 0.00 0.00 0.00 0.00 1043.00 1051.00 1055.00 1058.00 1057.00 1055.00 1052.00 1046.00 0.00 768.00 761.00 756.00 753.00 750.00 748.00 745.00 744.00 743.00 742.00 741.00 740.00 739.00 739.00 738.00 738.00 738.00 738.00 738.00 739.00 740.00 740.00 741.00 741.00 742.00 743.00 744.00 745.00 746.00 746.00 747.00 748.00 749.00 750.00 752.00 754.00 756.00 758.00 759.00 760.00 760.00 760.00 760.00 761.00 762.00 763.00 765.00 768.00 771.00 774.00 779.00 783.00 788.00 792.00 797.00 803.00 810.00 818.00 826.00 831.00 834.00 836.00 837.00 838.00 839.00 840.00 841.00 841.00 841.00 842.00 842.00 842.00 842.00 842.00 841.00 839.00 835.00 827.00 815.00 803.00 795.00 790.00 786.00 784.00 782.00 780.00 778.00 776.00 775.00 775.00 774.00 772.00 770.00 766.00 763.00 760.00 758.00 756.00 755.00 755.00 755.00 754.00 754.00 754.00 753.00 753.00 752.00 751.00 751.00 751.00 750.00 750.00 749.00 748.00 748.00 747.00 746.00 746.00 746.00 746.00 746.00 746.00 745.00 744.00 743.00 742.00 741.00 741.00 741.00 740.00 740.00 740.00 739.00 738.00 737.00 735.00 734.00 732.00 730.00 729.00 728.00 726.00 726.00 725.00 725.00 725.00 726.00 726.00 727.00 728.00 729.00 730.00 730.00 730.00 730.00 731.00 730.00 730.00 730.00 731.00 731.00 731.00 731.00 732.00 731.00 731.00 731.00 732.00 732.00 733.00 734.00 736.00 737.00 738.00 739.00 739.00 740.00 741.00 742.00 742.00 744.00 745.00 745.00 746.00 747.00 748.00 749.00 749.00 750.00 750.00 751.00 752.00 753.00 753.00 753.00 753.00 754.00 754.00 754.00 755.00 755.00 756.00 757.00 757.00 758.00 759.00 759.00 759.00 761.00 763.00 763.00 765.00 765.00 765.00 765.00 766.00 767.00 768.00 770.00 772.00 773.00 774.00 774.00 774.00 775.00 776.00 776.00 777.00 778.00 781.00 782.00 784.00 786.00 786.00 786.00 786.00 786.00 786.00 789.00 796.00 808.00 829.00 861.00 881.00 890.00 889.00 882.00 875.00 871.00 872.00 877.00 882.00 887.00 892.00 897.00 900.00 903.00 906.00 906.00 905.00 903.00 901.00 899.00 898.00 898.00 896.00 893.00 886.00 874.00 0.00 0.00 0.00 0.00 0.00 0.00 0.00 0.00 0.00 0.00 0.00 0.00 0.00 0.00 0.00 0.00 0.00 0.00 0.00 0.00 0.00 0.00 0.00 0.00 0.00 0.00 0.00 0.00 0.00 0.00 0.00 0.00 0.00 0.00 0.00 0.00 0.00 0.00 0.00 0.00 2328.00 2320.00 2315.00 2310.00 2304.00 2299.00 2295.00 2290.00 2285.00 2279.00 2273.00 2265.00 2259.00 2253.00 2246.00 2239.00 2233.00 2228.00 2224.00 2218.00 2212.00 2203.00 2189.00 0.00 0.00 0.00 2071.00 2060.00 2053.00 2047.00 2044.00 2044.00 2045.00 0.00 0.00 0.00 0.00 0.00 0.00 0.00 0.00 0.00 0.00 0.00 0.00 0.00 0.00 0.00 0.00 0.00 0.00 0.00 0.00 0.00 0.00 0.00 0.00
0.00 0.00 0.00 0.00 0.00 0.00 0.00 0.00 0.00 0.00 0.00 0.00 0.00 1919.00 0.00 0.00 0.00 0.00 0.00 0.00 0.00 0.00 0.00 0.00 0.00 0.00 1985.00 1989.00 0.00 0.00 0.00 0.00 0.00 0.00 0.00 0.00 0.00 0.00 0.00 0.00 0.00 0.00 0.00 0.00 0.00 0.00 0.00 0.00 0.00 0.00 0.00 0.00 0.00 0.00 0.00 0.00 0.00 0.00 0.00 0.00 0.00 0.00 0.00 0.00 0.00 0.00 0.00 0.00 0.00 0.00 0.00 0.00 0.00 0.00 0.00 0.00 0.00 0.00 0.00 0.00 0.00 0.00 0.00 0.00 0.00 0.00 0.00 0.00 0.00 0.00 0.00 0.00 0.00 0.00 0.00 0.00 0.00 0.00 0.00 0.00 0.00 0.00 0.00 0.00 0.00 0.00 0.00 0.00 341.00 344.00 345.00 347.00 348.00 350.00 352.00 355.00 359.00 361.00 362.00 363.00 363.00 363.00 363.00 363.00 363.00 363.00 362.00 360.00 359.00 357.00 354.00 0.00 0.00 0.00 0.00 768.00 771.00 770.00 0.00 0.00 0.00 0.00 0.00 0.00 0.00 0.00 0.00 0.00 1043.00 1052.00 1056.00 1059.00 1060.00 1058.00 1056.00 1051.00 0.00 0.00 764.00 759.00 754.00 751.00 749.00 746.00 745.00 743.00 742.00 741.00 740.00 739.00 739.00 738.00 738.00 737.00 737.00 737.00 738.00 738.00 739.00 740.00 740.00 741.00 742.00 743.00 744.00 745.00 745.00 746.00 747.00 748.00 749.00 751.00 753.00 754.00 755.00 756.00 756.00 756.00 756.00 756.00 757.00 759.00 760.00 763.00 765.00 768.00 772.00 776.00 780.00 784.00 788.00 793.00 797.00 803.00 810.00 818.00 825.00 830.00 833.00 836.00 837.00 838.00 839.00 840.00 841.00 842.00 842.00 843.00 842.00 843.00 842.00 841.00 838.00 833.00 823.00 810.00 799.00 792.00 787.00 785.00 783.00 781.00 779.00 777.00 775.00 774.00 774.00 773.00 771.00 768.00 765.00 762.00 758.00 757.00 756.00 755.00 755.00 754.00 754.00 754.00 753.00 752.00 752.00 752.00 751.00 751.00 750.00 749.00 749.00 748.00 747.00 747.00 746.00 746.00 746.00 746.00 746.00 746.00 746.00 745.00 744.00 743.00 742.00 741.00 740.00 740.00 740.00 739.00 739.00 738.00 737.00 736.00 735.00 734.00 732.00 730.00 729.00 727.00 726.00 725.00 725.00 724.00 725.00 726.00 726.00 727.00 728.00 728.00 729.00 730.00 730.00 730.00 731.00 730.00 730.00 730.00 731.00 731.00 731.00 731.00 731.00 731.00 731.00 731.00 732.00 732.00 733.00 734.00 735.00 737.00 738.00 738.00 739.00 740.00 741.00 742.00 743.00 743.00 745.00 745.00 746.00 747.00 748.00 749.00 749.00 750.00 750.00 751.00 752.00 752.00 753.00 754.00 754.00 754.00 754.00 754.00 754.00 755.00 756.00 757.00 757.00 758.00 758.00 758.00 759.00 760.00 762.00 763.00 765.00 764.00 765.00 765.00 766.00 766.00 768.00 769.00 771.00 773.00 774.00 774.00 774.00 774.00 775.00 775.00 776.00 777.00 779.00 780.00 782.00 784.00 785.00 785.00 785.00 785.00 786.00 789.00 795.00 806.00 823.00 850.00 870.00 878.00 877.00 871.00 866.00 866.00 871.00 879.00 886.00 891.00 895.00 899.00 902.00 904.00 905.00 904.00 902.00 899.00 897.00 894.00 894.00 896.00 895.00 892.00 886.00 875.00 0.00 0.00 0.00 0.00 0.00 0.00 0.00 0.00 0.00 0.00 0.00 0.00 0.00 0.00 0.00 0.00 0.00 0.00 0.00 0.00 0.00 0.00 0.00 0.00 0.00 0.00 0.00 0.00 0.00 0.00 0.00 0.00 0.00 0.00 0.00 0.00 0.00 0.00 0.00 2335.00 2327.00 2321.00 2314.00 2310.00 2304.00 2299.00 2295.00 2291.00 2284.00 2277.00 2272.00 2264.00 2258.00 2251.00 2245.00 2239.00 2234.00 2229.00 2224.00 2219.00 2211.00 2201.00 2189.00 2168.00 0.00 0.00 2074.00 2061.00 2054.00 2049.00 2046.00 2045.00 2046.00 0.00 0.00 0.00 0.00 0.00 0.00 0.00 0.00 0.00 0.00 0.00 0.00 2805.00 0.00 0.00 0.00 0.00 0.00 0.00 0.00 0.00 0.00 0.00 0.00
0.00 0.00 0.00 0.00 0.00 0.00 0.00 0.00 0.00 0.00 0.00 0.00 1923.00 1925.00 0.00 0.00 0.00 0.00 0.00 0.00 0.00 0.00 0.00 0.00 0.00 0.00 0.00 0.00 0.00 0.00 0.00 0.00 0.00 0.00 0.00 0.00 0.00 0.00 0.00 0.00 0.00 0.00 0.00 0.00 0.00 0.00 0.00 0.00 0.00 0.00 0.00 0.00 0.00 0.00 0.00 0.00 0.00 0.00 0.00 0.00 0.00 0.00 0.00 0.00 0.00 0.00 0.00 0.00 0.00 0.00 0.00 0.00 0.00 0.00 0.00 0.00 0.00 0.00 0.00 0.00 0.00 0.00 0.00 0.00 0.00 0.00 0.00 0.00 0.00 0.00 0.00 0.00 0.00 0.00 0.00 0.00 0.00 0.00 0.00 0.00 0.00 0.00 0.00 0.00 0.00 0.00 0.00 0.00 341.00 344.00 345.00 347.00 348.00 350.00 352.00 355.00 358.00 361.00 362.00 362.00 362.00 362.00 362.00 362.00 362.00 362.00 361.00 360.00 358.00 356.00 352.00 0.00 0.00 0.00 0.00 768.00 771.00 771.00 0.00 0.00 0.00 0.00 0.00 0.00 0.00 0.00 0.00 0.00 1047.00 1055.00 1058.00 1061.00 1061.00 1061.00 1058.00 1054.00 1049.00 0.00 768.00 762.00 757.00 753.00 751.00 748.00 747.00 745.00 744.00 742.00 741.00 740.00 739.00 738.00 738.00 738.00 738.00 738.00 738.00 738.00 738.00 739.00 739.00 741.00 741.00 742.00 743.00 744.00 744.00 745.00 747.00 748.00 749.00 750.00 751.00 752.00 752.00 753.00 752.00 752.00 752.00 753.00 754.00 756.00 758.00 761.00 764.00 767.00 769.00 773.00 776.00 780.00 784.00 788.00 792.00 797.00 802.00 809.00 817.00 823.00 828.00 832.00 835.00 837.00 839.00 840.00 841.00 842.00 843.00 843.00 842.00 842.00 842.00 841.00 837.00 830.00 819.00 806.00 796.00 789.00 786.00 784.00 782.00 780.00 778.00 776.00 774.00 773.00 772.00 771.00 768.00 766.00 763.00 760.00 757.00 756.00 755.00 754.00 754.00 754.00 753.00 753.00 753.00 752.00 752.00 751.00 751.00 750.00 750.00 749.00 748.00 748.00 747.00 746.00 746.00 745.00 745.00 745.00 745.00 745.00 745.00 744.00 743.00 742.00 741.00 740.00 740.00 740.00 739.00 739.00 738.00 738.00 736.00 735.00 735.00 733.00 732.00 731.00 729.00 727.00 726.00 725.00 725.00 724.00 725.00 725.00 725.00 726.00 727.00 727.00 729.00 729.00 729.00 729.00 730.00 730.00 730.00 730.00 731.00 730.00 730.00 730.00 730.00 730.00 731.00 731.00 732.00 732.00 732.00 734.00 735.00 737.00 738.00 738.00 739.00 740.00 740.00 742.00 742.00 743.00 745.00 745.00 746.00 747.00 748.00 748.00 749.00 749.00 750.00 750.00 751.00 752.00 753.00 754.00 754.00 754.00 754.00 754.00 755.00 755.00 756.00 757.00 757.00 758.00 758.00 759.00 759.00 760.00 762.00 763.00 764.00 764.00 765.00 765.00 766.00 766.00 768.00 768.00 770.00 772.00 773.00 773.00 773.00 774.00 774.00 774.00 775.00 775.00 777.00 779.00 781.00 783.00 784.00 784.00 784.00 785.00 786.00 789.00 795.00 805.00 820.00 841.00 855.00 862.00 864.00 861.00 862.00 868.00 876.00 884.00 890.00 895.00 899.00 902.00 904.00 904.00 904.00 901.00 898.00 894.00 892.00 891.00 894.00 896.00 895.00 892.00 885.00 0.00 0.00 0.00 0.00 0.00 0.00 0.00 0.00 0.00 0.00 0.00 0.00 0.00 0.00 0.00 0.00 0.00 0.00 0.00 0.00 0.00 0.00 0.00 0.00 0.00 0.00 0.00 0.00 0.00 0.00 0.00 0.00 0.00 0.00 0.00 0.00 0.00 0.00 0.00 0.00 2334.00 0.00 0.00 2312.00 2310.00 2303.00 2298.00 2294.00 2289.00 2282.00 2275.00 2270.00 2262.00 2257.00 2250.00 2245.00 2239.00 2234.00 2227.00 2222.00 2215.00 2209.00 2200.00 2188.00 2171.00 0.00 0.00 2076.00 2062.00 2055.00 2050.00 2047.00 2045.00 2046.00 0.00 0.00 0.00 0.00 0.00 0.00 0.00 0.00 0.00 0.00 0.00 0.00 0.00 0.00 0.00 0.00 0.00 0.00 2780.00 0.00 0.00 0.00 0.00 0.00
0.00 0.00 0.00 0.00 0.00 0.00 0.00 0.00 0.00 1930.00 0.00 0.00 1929.00 0.00 0.00 0.00 0.00 0.00 0.00 0.00 0.00 0.00 0.00 0.00 0.00 0.00 0.00 0.00 0.00 0.00 0.00 0.00 0.00 0.00 0.00 0.00 0.00 0.00 0.00 0.00 0.00 0.00 0.00 0.00 0.00 0.00 0.00 0.00 0.00 0.00 0.00 0.00 0.00 0.00 0.00 0.00 0.00 0.00 0.00 0.00 0.00 0.00 0.00 0.00 0.00 0.00 0.00 0.00 0.00 0.00 0.00 0.00 0.00 0.00 0.00 0.00 0.00 0.00 0.00 0.00 0.00 0.00 0.00 0.00 0.00 0.00 0.00 0.00 0.00 0.00 0.00 0.00 0.00 0.00 0.00 0.00 0.00 0.00 0.00 0.00 0.00 0.00 0.00 0.00 0.00 345.00 343.00 0.00 342.00 344.00 345.00 345.00 346.00 348.00 351.00 354.00 358.00 361.00 362.00 362.00 362.00 362.00 361.00 361.00 362.00 362.00 361.00 361.00 359.00 357.00 352.00 0.00 0.00 0.00 0.00 768.00 771.00 770.00 0.00 0.00 0.00 0.00 0.00 0.00 0.00 0.00 0.00 0.00 1050.00 1056.00 1060.00 1063.00 1064.00 1064.00 1062.00 1059.00 1054.00 0.00 777.00 766.00 760.00 755.00 752.00 749.00 748.00 745.00 744.00 743.00 741.00 740.00 740.00 739.00 738.00 738.00 738.00 738.00 738.00 739.00 739.00 739.00 739.00 740.00 741.00 742.00 743.00 744.00 744.00 745.00 746.00 747.00 748.00 749.00 749.00 749.00 749.00 750.00 750.00 750.00 750.00 751.00 752.00 754.00 756.00 759.00 761.00 764.00 766.00 769.00 773.00 777.00 780.00 785.00 788.00 793.00 797.00 802.00 808.00 815.00 821.00 827.00 831.00 834.00 837.00 839.00 841.00 842.00 843.00 843.00 842.00 842.00 842.00 840.00 835.00 827.00 814.00 800.00 791.00 786.00 784.00 782.00 781.00 779.00 777.00 774.00 772.00 771.00 770.00 769.00 766.00 764.00 760.00 758.00 756.00 755.00 754.00 754.00 754.00 754.00 753.00 753.00 753.00 752.00 751.00 751.00 750.00 750.00 748.00 748.00 747.00 747.00 746.00 746.00 746.00 746.00 745.00 745.00 745.00 745.00 744.00 744.00 742.00 741.00 741.00 740.00 739.00 739.00 739.00 738.00 737.00 737.00 736.00 735.00 734.00 733.00 732.00 731.00 729.00 727.00 726.00 725.00 725.00 724.00 725.00 725.00 725.00 726.00 727.00 727.00 728.00 729.00 729.00 729.00 730.00 730.00 730.00 730.00 730.00 730.00 730.00 730.00 730.00 730.00 731.00 731.00 732.00 732.00 733.00 734.00 735.00 737.00 738.00 738.00 739.00 740.00 741.00 742.00 742.00 743.00 745.00 745.00 746.00 747.00 748.00 748.00 749.00 750.00 750.00 751.00 752.00 753.00 753.00 754.00 754.00 754.00 754.00 754.00 754.00 755.00 756.00 756.00 757.00 758.00 758.00 758.00 759.00 760.00 762.00 763.00 765.00 764.00 765.00 766.00 766.00 766.00 767.00 768.00 770.00 771.00 773.00 773.00 773.00 773.00 774.00 774.00 774.00 774.00 776.00 777.00 779.00 781.00 783.00 783.00 784.00 785.00 786.00 789.00 795.00 805.00 817.00 833.00 845.00 851.00 855.00 857.00 864.00 873.00 884.00 891.00 895.00 899.00 902.00 904.00 904.00 903.00 901.00 898.00 893.00 890.00 889.00 891.00 894.00 896.00 895.00 890.00 882.00 0.00 0.00 0.00 0.00 0.00 0.00 0.00 0.00 0.00 0.00 0.00 0.00 0.00 0.00 0.00 0.00 0.00 0.00 0.00 0.00 0.00 0.00 0.00 0.00 0.00 0.00 0.00 0.00 0.00 0.00 0.00 0.00 0.00 0.00 0.00 0.00 0.00 0.00 0.00 0.00 0.00 0.00 0.00 2312.00 2309.00 2302.00 2298.00 2293.00 2286.00 2280.00 2274.00 2269.00 2262.00 2256.00 2249.00 2245.00 2238.00 2233.00 2227.00 2223.00 2214.00 2208.00 2200.00 2186.00 2169.00 0.00 2094.00 2076.00 2062.00 2054.00 2049.00 2046.00 2045.00 2046.00 0.00 0.00 0.00 0.00 0.00 0.00 0.00 0.00 0.00 0.00 0.00 0.00 0.00 0.00 2803.00 0.00 0.00 0.00 0.00 0.00 0.00 0.00 0.00 0.00
0.00 0.00 0.00 0.00 0.00 0.00 0.00 0.00 0.00 0.00 0.00 0.00 0.00 0.00 0.00 0.00 0.00 0.00 0.00 0.00 0.00 0.00 0.00 0.00 0.00 0.00 0.00 0.00 0.00 0.00 0.00 0.00 0.00 0.00 0.00 0.00 0.00 0.00 0.00 0.00 0.00 0.00 0.00 0.00 0.00 0.00 0.00 0.00 0.00 0.00 0.00 0.00 0.00 0.00 0.00 0.00 0.00 0.00 0.00 0.00 0.00 0.00 0.00 0.00 0.00 0.00 0.00 0.00 0.00 0.00 0.00 0.00 0.00 0.00 0.00 0.00 0.00 0.00 0.00 0.00 0.00 0.00 0.00 0.00 0.00 0.00 0.00 0.00 0.00 0.00 0.00 0.00 0.00 0.00 0.00 0.00 0.00 0.00 0.00 0.00 0.00 0.00 0.00 0.00 349.00 348.00 346.00 0.00 344.00 344.00 344.00 345.00 346.00 348.00 351.00 354.00 357.00 360.00 362.00 362.00 362.00 362.00 361.00 361.00 361.00 362.00 361.00 361.00 358.00 358.00 351.00 0.00 0.00 0.00 0.00 768.00 770.00 770.00 0.00 0.00 0.00 0.00 0.00 0.00 0.00 0.00 0.00 0.00 1053.00 1059.00 1062.00 1065.00 1067.00 1067.00 1065.00 1063.00 1059.00 0.00 804.00 769.00 762.00 757.00 754.00 750.00 749.00 746.00 745.00 743.00 742.00 741.00 740.00 739.00 739.00 739.00 739.00 739.00 739.00 739.00 739.00 739.00 739.00 740.00 741.00 741.00 742.00 743.00 744.00 745.00 746.00 747.00 747.00 747.00 747.00 747.00 746.00 747.00 747.00 748.00 748.00 750.00 751.00 753.00 755.00 757.00 759.00 761.00 764.00 767.00 770.00 774.00 777.00 781.00 785.00 788.00 791.00 796.00 801.00 806.00 812.00 819.00 825.00 829.00 834.00 837.00 839.00 841.00 842.00 842.00 842.00 842.00 841.00 839.00 833.00 823.00 809.00 796.00 788.00 785.00 783.00 782.00 780.00 779.00 776.00 774.00 771.00 770.00 769.00 767.00 764.00 762.00 759.00 757.00 755.00 754.00 754.00 754.00 753.00 753.00 753.00 753.00 753.00 752.00 752.00 751.00 750.00 749.00 748.00 748.00 747.00 747.00 746.00 746.00 745.00 746.00 745.00 745.00 745.00 744.00 744.00 743.00 742.00 741.00 741.00 740.00 739.00 739.00 738.00 737.00 737.00 736.00 735.00 734.00 733.00 732.00 732.00 730.00 729.00 727.00 726.00 725.00 724.00 724.00 724.00 725.00 725.00 725.00 726.00 726.00 728.00 729.00 729.00 729.00 729.00 729.00 729.00 730.00 730.00 729.00 729.00 730.00 730.00 730.00 731.00 731.00 731.00 732.00 733.00 734.00 735.00 737.00 737.00 738.00 739.00 740.00 740.00 741.00 742.00 743.00 744.00 745.00 746.00 747.00 747.00 748.00 749.00 749.00 750.00 751.00 751.00 752.00 753.00 753.00 753.00 754.00 754.00 754.00 755.00 755.00 755.00 756.00 757.00 757.00 758.00 759.00 760.00 760.00 761.00 763.00 764.00 764.00 765.00 765.00 766.00 766.00 767.00 767.00 770.00 771.00 773.00 773.00 774.00 774.00 774.00 774.00 775.00 774.00 775.00 776.00 778.00 780.00 782.00 783.00 784.00 785.00 786.00 790.00 795.00 804.00 815.00 827.00 834.00 842.00 848.00 857.00 869.00 880.00 889.00 895.00 898.00 901.00 904.00 905.00 904.00 902.00 898.00 893.00 887.00 885.00 887.00 890.00 894.00 894.00 891.00 884.00 872.00 0.00 0.00 0.00 0.00 0.00 0.00 0.00 0.00 0.00 0.00 0.00 0.00 0.00 0.00 0.00 0.00 0.00 0.00 0.00 0.00 0.00 0.00 0.00 0.00 0.00 0.00 0.00 0.00 0.00 0.00 0.00 0.00 0.00 0.00 0.00 0.00 0.00 0.00 0.00 0.00 2332.00 0.00 0.00 2312.00 2308.00 2304.00 2297.00 2292.00 2286.00 2280.00 2273.00 2268.00 2261.00 2256.00 2249.00 2244.00 2238.00 2233.00 2225.00 2220.00 2212.00 2206.00 2199.00 2188.00 2170.00 0.00 2096.00 2078.00 2064.00 2055.00 2050.00 2046.00 2045.00 2046.00 2050.00 0.00 0.00 0.00 0.00 0.00 0.00 0.00 0.00 0.00 0.00 0.00 0.00 0.00 2803.00 0.00 0.00 2790.00 0.00 0.00 0.00 0.00 0.00 0.00
0.00 0.00 0.00 0.00 0.00 0.00 0.00 0.00 0.00 0.00 0.00 0.00 0.00 0.00 0.00 0.00 0.00 0.00 0.00 0.00 0.00 0.00 0.00 0.00 0.00 0.00 0.00 0.00 0.00 0.00 0.00 0.00 0.00 0.00 0.00 0.00 0.00 0.00 0.00 0.00 0.00 0.00 0.00 0.00 0.00 0.00 0.00 0.00 0.00 0.00 0.00 0.00 0.00 0.00 0.00 0.00 0.00 0.00 0.00 0.00 0.00 0.00 0.00 0.00 0.00 0.00 0.00 0.00 0.00 0.00 0.00 0.00 0.00 0.00 0.00 0.00 0.00 0.00 0.00 0.00 0.00 0.00 0.00 0.00 0.00 0.00 0.00 0.00 0.00 0.00 0.00 0.00 0.00 0.00 0.00 0.00 0.00 0.00 0.00 0.00 0.00 0.00 0.00 0.00 351.00 351.00 348.00 347.00 343.00 344.00 343.00 344.00 346.00 348.00 351.00 354.00 357.00 359.00 361.00 362.00 362.00 362.00 361.00 361.00 361.00 361.00 361.00 361.00 358.00 358.00 0.00 0.00 0.00 0.00 0.00 769.00 770.00 770.00 0.00 0.00 0.00 0.00 0.00 0.00 0.00 0.00 0.00 1031.00 1056.00 1063.00 1066.00 1068.00 1070.00 1070.00 1069.00 1067.00 1062.00 1057.00 0.00 772.00 765.00 759.00 755.00 752.00 750.00 747.00 745.00 744.00 742.00 741.00 740.00 740.00 739.00 740.00 740.00 740.00 740.00 739.00 739.00 738.00 739.00 739.00 740.00 741.00 742.00 743.00 744.00 744.00 745.00 745.00 745.00 744.00 744.00 744.00 744.00 745.00 745.00 746.00 747.00 748.00 749.00 751.00 753.00 755.00 757.00 760.00 762.00 765.00 768.00 771.00 774.00 778.00 781.00 785.00 788.00 791.00 795.00 799.00 804.00 810.00 815.00 822.00 828.00 832.00 836.00 840.00 841.00 841.00 841.00 841.00 840.00 838.00 830.00 818.00 804.00 792.00 786.00 783.00 782.00 781.00 780.00 778.00 776.00 773.00 770.00 769.00 767.00 765.00 763.00 760.00 758.00 756.00 754.00 754.00 754.00 754.00 753.00 753.00 753.00 752.00 752.00 752.00 751.00 750.00 750.00 749.00 748.00 748.00 747.00 747.00 746.00 746.00 745.00 745.00 744.00 744.00 744.00 744.00 743.00 743.00 742.00 741.00 740.00 739.00 739.00 739.00 738.00 737.00 736.00 735.00 734.00 734.00 733.00 732.00 731.00 730.00 728.00 727.00 726.00 724.00 724.00 724.00 724.00 724.00 725.00 725.00 726.00 726.00 727.00 728.00 728.00 728.00 729.00 729.00 728.00 729.00 729.00 729.00 729.00 729.00 730.00 729.00 730.00 731.00 731.00 732.00 733.00 734.00 735.00 736.00 737.00 738.00 739.00 740.00 740.00 741.00 742.00 743.00 744.00 745.00 746.00 747.00 747.00 748.00 748.00 749.00 750.00 751.00 751.00 752.00 752.00 753.00 753.00 754.00 754.00 754.00 755.00 755.00 756.00 756.00 757.00 758.00 758.00 759.00 760.00 760.00 761.00 763.00 764.00 764.00 765.00 765.00 766.00 766.00 766.00 767.00 769.00 771.00 773.00 773.00 773.00 773.00 774.00 774.00 774.00 774.00 775.00 776.00 777.00 779.00 781.00 782.00 784.00 785.00 786.00 789.00 794.00 802.00 812.00 823.00 829.00 837.00 848.00 860.00 875.00 886.00 893.00 898.00 900.00 903.00 904.00 904.00 902.00 898.00 891.00 885.00 878.00 880.00 883.00 887.00 890.00 889.00 885.00 876.00 867.00 0.00 0.00 0.00 0.00 0.00 0.00 0.00 0.00 0.00 0.00 0.00 0.00 0.00 0.00 0.00 0.00 0.00 0.00 0.00 0.00 0.00 0.00 0.00 0.00 0.00 0.00 0.00 0.00 0.00 0.00 0.00 0.00 0.00 0.00 0.00 0.00 0.00 0.00 0.00 0.00 0.00 0.00 0.00 2312.00 2307.00 2302.00 2296.00 2290.00 2284.00 2278.00 2272.00 2268.00 2262.00 2257.00 2251.00 2246.00 2240.00 2232.00 2226.00 2219.00 2212.00 2206.00 2199.00 2188.00 2175.00 0.00 2103.00 2081.00 2065.00 2055.00 2050.00 2046.00 2045.00 2046.00 2050.00 0.00 0.00 0.00 0.00 0.00 0.00 0.00 0.00 0.00 0.00 0.00 0.00 0.00 0.00 0.00 0.00 0.00 0.00 0.00 0.00 0.00 0.00 0.00
0.00 0.00 0.00 0.00 0.00 0.00 0.00 0.00 0.00 1958.00 1954.00 0.00 0.00 0.00 0.00 0.00 0.00 0.00 0.00 0.00 0.00 0.00 0.00 0.00 0.00 0.00 0.00 0.00 0.00 0.00 0.00 0.00 0.00 0.00 0.00 0.00 0.00 0.00 0.00 0.00 0.00 0.00 0.00 0.00 0.00 0.00 0.00 0.00 0.00 0.00 0.00 0.00 0.00 0.00 0.00 0.00 0.00 0.00 0.00 0.00 0.00 0.00 0.00 0.00 0.00 0.00 0.00 0.00 0.00 0.00 0.00 0.00 0.00 0.00 0.00 0.00 0.00 0.00 0.00 0.00 0.00 0.00 0.00 0.00 0.00 0.00 0.00 0.00 0.00 0.00 0.00 0.00 0.00 0.00 0.00 0.00 0.00 0.00 0.00 0.00 0.00 0.00 0.00 353.00 351.00 350.00 349.00 347.00 344.00 343.00 342.00 343.00 346.00 348.00 350.00 353.00 356.00 358.00 361.00 362.00 362.00 362.00 361.00 361.00 361.00 362.00 362.00 361.00 359.00 357.00 0.00 0.00 0.00 0.00 0.00 770.00 771.00 772.00 0.00 0.00 0.00 0.00 0.00 0.00 0.00 0.00 0.00 0.00 1061.00 1066.00 1069.00 1071.00 1073.00 1073.00 1072.00 1070.00 1066.00 1060.00 0.00 780.00 767.00 760.00 756.00 752.00 750.00 747.00 746.00 744.00 743.00 741.00 741.00 740.00 740.00 740.00 741.00 741.00 741.00 740.00 740.00 739.00 739.00 739.00 740.00 741.00 742.00 743.00 743.00 742.00 743.00 742.00 742.00 742.00 742.00 742.00 743.00 743.00 744.00 745.00 746.00 747.00 748.00 750.00 752.00 753.00 756.00 758.00 761.00 763.00 766.00 769.00 772.00 775.00 779.00 783.00 785.00 788.00 791.00 794.00 798.00 803.00 807.00 813.00 820.00 826.00 832.00 837.00 839.00 840.00 841.00 841.00 840.00 836.00 828.00 815.00 800.00 790.00 784.00 782.00 781.00 780.00 779.00 778.00 775.00 772.00 769.00 767.00 765.00 763.00 761.00 759.00 756.00 755.00 754.00 753.00 753.00 753.00 753.00 752.00 752.00 752.00 751.00 752.00 751.00 750.00 749.00 749.00 747.00 747.00 747.00 746.00 746.00 745.00 745.00 745.00 744.00 744.00 743.00 743.00 742.00 742.00 741.00 740.00 740.00 739.00 738.00 738.00 737.00 737.00 736.00 734.00 734.00 733.00 732.00 731.00 731.00 730.00 728.00 727.00 726.00 725.00 724.00 724.00 724.00 724.00 724.00 725.00 725.00 725.00 726.00 727.00 727.00 727.00 728.00 728.00 728.00 728.00 729.00 729.00 729.00 729.00 729.00 729.00 730.00 730.00 731.00 732.00 733.00 734.00 735.00 736.00 738.00 738.00 739.00 740.00 740.00 741.00 741.00 743.00 744.00 745.00 746.00 747.00 747.00 748.00 748.00 749.00 750.00 751.00 751.00 752.00 753.00 753.00 753.00 754.00 754.00 755.00 755.00 755.00 756.00 756.00 757.00 757.00 758.00 759.00 761.00 761.00 762.00 763.00 763.00 764.00 765.00 765.00 766.00 766.00 766.00 767.00 769.00 770.00 773.00 773.00 773.00 773.00 774.00 774.00 774.00 774.00 774.00 775.00 776.00 778.00 781.00 782.00 784.00 785.00 786.00 789.00 794.00 801.00 810.00 820.00 827.00 834.00 847.00 866.00 879.00 889.00 896.00 901.00 902.00 904.00 904.00 902.00 898.00 893.00 883.00 874.00 870.00 874.00 879.00 883.00 884.00 882.00 876.00 868.00 0.00 0.00 0.00 0.00 0.00 0.00 0.00 0.00 0.00 0.00 0.00 0.00 0.00 0.00 0.00 0.00 0.00 0.00 0.00 0.00 0.00 0.00 0.00 0.00 0.00 0.00 0.00 0.00 0.00 0.00 0.00 0.00 0.00 0.00 0.00 0.00 0.00 0.00 0.00 0.00 0.00 0.00 0.00 2317.00 2312.00 2307.00 2302.00 2296.00 2291.00 2285.00 2280.00 2274.00 2269.00 2264.00 2258.00 2252.00 2247.00 2239.00 2232.00 2225.00 2218.00 2213.00 2207.00 2201.00 2190.00 2176.00 2149.00 2110.00 2083.00 2068.00 2056.00 2050.00 2045.00 2044.00 2044.00 2047.00 0.00 0.00 0.00 0.00 0.00 0.00 0.00 0.00 0.00 0.00 0.00 0.00 0.00 0.00 0.00 0.00 0.00 0.00 0.00 0.00 0.00 0.00 0.00
0.00 0.00 0.00 0.00 0.00 0.00 0.00 0.00 0.00 1962.00 1960.00 0.00 0.00 0.00 0.00 0.00 0.00 0.00 0.00 0.00 0.00 0.00 0.00 0.00 0.00 0.00 0.00 0.00 0.00 0.00 0.00 0.00 0.00 0.00 0.00 0.00 0.00 0.00 0.00 0.00 0.00 0.00 0.00 0.00 0.00 0.00 0.00 0.00 0.00 0.00 0.00 0.00 0.00 0.00 0.00 0.00 0.00 0.00 0.00 0.00 0.00 0.00 0.00 0.00 0.00 0.00 0.00 0.00 0.00 0.00 0.00 0.00 0.00 0.00 0.00 0.00 0.00 0.00 0.00 0.00 0.00 0.00 0.00 0.00 0.00 0.00 0.00 0.00 0.00 0.00 0.00 0.00 0.00 0.00 0.00 0.00 0.00 0.00 0.00 0.00 0.00 0.00 0.00 354.00 350.00 350.00 347.00 347.00 343.00 343.00 342.00 343.00 345.00 348.00 350.00 353.00 355.00 358.00 361.00 362.00 362.00 362.00 362.00 362.00 362.00 363.00 363.00 362.00 360.00 357.00 351.00 0.00 0.00 0.00 0.00 769.00 769.00 774.00 0.00 0.00 0.00 0.00 0.00 0.00 0.00 0.00 0.00 1049.00 1062.00 1067.00 1070.00 1073.00 1075.00 1075.00 1074.00 1073.00 1071.00 1066.00 0.00 0.00 766.00 761.00 757.00 753.00 751.00 749.00 747.00 745.00 744.00 743.00 742.00 741.00 740.00 740.00 740.00 740.00 741.00 740.00 740.00 740.00 739.00 739.00 740.00 741.00 741.00 742.00 742.00 741.00 740.00 740.00 740.00 740.00 740.00 741.00 741.00 742.00 743.00 744.00 745.00 746.00 747.00 749.00 750.00 752.00 754.00 756.00 759.00 761.00 764.00 767.00 770.00 773.00 777.00 780.00 783.00 786.00 789.00 791.00 794.00 797.00 800.00 804.00 810.00 817.00 826.00 833.00 837.00 839.00 841.00 841.00 840.00 835.00 825.00 811.00 796.00 787.00 782.00 780.00 780.00 779.00 778.00 777.00 774.00 772.00 768.00 766.00 764.00 762.00 760.00 759.00 756.00 755.00 753.00 752.00 752.00 752.00 752.00 752.00 752.00 751.00 750.00 751.00 750.00 749.00 749.00 748.00 747.00 747.00 746.00 746.00 745.00 745.00 745.00 744.00 744.00 743.00 743.00 743.00 742.00 742.00 741.00 740.00 740.00 739.00 738.00 737.00 737.00 736.00 735.00 734.00 733.00 732.00 732.00 731.00 731.00 730.00 728.00 727.00 726.00 724.00 724.00 724.00 723.00 723.00 724.00 724.00 724.00 725.00 726.00 727.00 727.00 727.00 727.00 727.00 727.00 728.00 729.00 729.00 729.00 729.00 730.00 729.00 730.00 731.00 731.00 732.00 733.00 734.00 735.00 735.00 737.00 737.00 738.00 739.00 740.00 741.00 741.00 742.00 743.00 744.00 745.00 747.00 747.00 748.00 748.00 749.00 750.00 751.00 751.00 752.00 752.00 753.00 753.00 753.00 754.00 754.00 755.00 755.00 755.00 756.00 757.00 757.00 758.00 759.00 760.00 761.00 762.00 763.00 764.00 764.00 764.00 765.00 765.00 766.00 766.00 767.00 769.00 771.00 773.00 773.00 772.00 772.00 773.00 773.00 774.00 774.00 774.00 774.00 774.00 776.00 779.00 781.00 783.00 785.00 786.00 789.00 794.00 800.00 809.00 818.00 825.00 836.00 852.00 868.00 882.00 891.00 897.00 902.00 903.00 904.00 902.00 899.00 892.00 883.00 869.00 860.00 859.00 864.00 870.00 873.00 873.00 871.00 865.00 852.00 841.00 0.00 0.00 0.00 0.00 0.00 0.00 0.00 0.00 0.00 0.00 0.00 0.00 0.00 0.00 0.00 0.00 0.00 0.00 0.00 0.00 0.00 0.00 0.00 0.00 0.00 0.00 0.00 0.00 0.00 0.00 0.00 0.00 0.00 0.00 0.00 0.00 0.00 0.00 0.00 0.00 0.00 0.00 2315.00 2310.00 2304.00 2300.00 2294.00 2290.00 2286.00 2280.00 2274.00 2270.00 2264.00 2258.00 2252.00 2246.00 2239.00 2232.00 2226.00 2220.00 2216.00 2209.00 2204.00 2193.00 2179.00 2151.00 2118.00 2085.00 2069.00 2057.00 2050.00 2045.00 2044.00 2043.00 2046.00 0.00 0.00 0.00 0.00 0.00 0.00 0.00 0.00 0.00 0.00 0.00 0.00 0.00 0.00 0.00 0.00 0.00 0.00 0.00 0.00 0.00 0.00 0.00
0.00 0.00 0.00 0.00 0.00 0.00 0.00 0.00 1968.00 1968.00 1966.00 1970.00 0.00 0.00 0.00 0.00 0.00 0.00 0.00 0.00 0.00 0.00 0.00 0.00 0.00 0.00 0.00 0.00 0.00 0.00 0.00 0.00 0.00 0.00 0.00 0.00 0.00 0.00 0.00 0.00 0.00 0.00 0.00 0.00 0.00 0.00 0.00 0.00 0.00 0.00 0.00 0.00 0.00 0.00 0.00 0.00 0.00 0.00 0.00 0.00 0.00 0.00 0.00 0.00 0.00 0.00 0.00 0.00 0.00 0.00 0.00 0.00 0.00 0.00 0.00 0.00 0.00 0.00 0.00 0.00 0.00 0.00 0.00 0.00 0.00 0.00 0.00 0.00 0.00 0.00 0.00 0.00 0.00 0.00 0.00 0.00 0.00 0.00 0.00 0.00 0.00 0.00 0.00 0.00 0.00 347.00 345.00 344.00 341.00 341.00 341.00 343.00 346.00 348.00 350.00 353.00 355.00 358.00 360.00 362.00 362.00 362.00 362.00 362.00 362.00 363.00 363.00 362.00 359.00 358.00 0.00 0.00 0.00 0.00 0.00 769.00 769.00 0.00 0.00 0.00 0.00 0.00 0.00 0.00 0.00 0.00 0.00 1054.00 1064.00 1069.00 1072.00 1075.00 1076.00 1076.00 1075.00 1075.00 1074.00 1072.00 0.00 0.00 0.00 762.00 759.00 755.00 753.00 750.00 749.00 747.00 745.00 744.00 743.00 741.00 741.00 741.00 741.00 741.00 741.00 741.00 740.00 740.00 740.00 740.00 741.00 741.00 741.00 740.00 740.00 738.00 738.00 738.00 738.00 739.00 740.00 740.00 741.00 741.00 742.00 743.00 744.00 745.00 746.00 747.00 749.00 751.00 753.00 755.00 758.00 760.00 763.00 766.00 769.00 772.00 775.00 778.00 781.00 784.00 786.00 788.00 790.00 793.00 795.00 797.00 801.00 807.00 816.00 826.00 833.00 837.00 839.00 840.00 839.00 834.00 823.00 808.00 794.00 786.00 781.00 780.00 779.00 779.00 778.00 777.00 774.00 772.00 768.00 766.00 763.00 761.00 759.00 757.00 755.00 754.00 752.00 752.00 752.00 752.00 752.00 752.00 751.00 751.00 750.00 750.00 749.00 749.00 748.00 747.00 747.00 746.00 746.00 745.00 745.00 745.00 744.00 743.00 743.00 743.00 742.00 742.00 742.00 741.00 740.00 739.00 739.00 738.00 737.00 737.00 736.00 735.00 734.00 733.00 732.00 732.00 731.00 731.00 730.00 730.00 728.00 727.00 726.00 724.00 724.00 723.00 723.00 723.00 723.00 723.00 724.00 724.00 725.00 726.00 726.00 726.00 726.00 726.00 727.00 727.00 728.00 728.00 729.00 729.00 729.00 729.00 729.00 730.00 731.00 732.00 733.00 733.00 734.00 735.00 736.00 737.00 738.00 739.00 740.00 740.00 741.00 742.00 743.00 745.00 745.00 747.00 747.00 748.00 748.00 749.00 749.00 750.00 751.00 751.00 752.00 753.00 752.00 753.00 753.00 754.00 755.00 755.00 756.00 756.00 757.00 757.00 758.00 759.00 760.00 761.00 762.00 763.00 763.00 763.00 763.00 764.00 765.00 766.00 766.00 767.00 769.00 770.00 772.00 772.00 772.00 772.00 773.00 773.00 774.00 774.00 774.00 775.00 774.00 776.00 778.00 780.00 782.00 784.00 786.00 789.00 793.00 799.00 808.00 817.00 825.00 838.00 854.00 870.00 883.00 892.00 898.00 902.00 903.00 903.00 899.00 893.00 884.00 869.00 856.00 848.00 848.00 852.00 858.00 859.00 860.00 855.00 850.00 841.00 0.00 0.00 0.00 0.00 0.00 0.00 0.00 0.00 0.00 0.00 0.00 0.00 0.00 0.00 0.00 0.00 0.00 0.00 0.00 0.00 0.00 0.00 0.00 0.00 0.00 0.00 0.00 0.00 0.00 0.00 0.00 0.00 0.00 0.00 0.00 0.00 0.00 0.00 0.00 0.00 0.00 0.00 2323.00 2316.00 2312.00 2305.00 2301.00 2295.00 2291.00 2286.00 2281.00 2275.00 2270.00 2264.00 2258.00 2252.00 2247.00 2239.00 2232.00 2227.00 2222.00 2216.00 2210.00 2203.00 2193.00 2178.00 2156.00 2128.00 0.00 2070.00 2060.00 2053.00 2049.00 2045.00 2044.00 2045.00 0.00 0.00 0.00 0.00 0.00 0.00 0.00 2835.00 0.00 0.00 0.00 0.00 0.00 0.00 0.00 0.00 0.00 0.00 0.00 0.00 0.00 0.00 0.00
0.00 0.00 0.00 0.00 1978.00 1976.00 1978.00 0.00 1977.00 0.00 0.00 0.00 1982.00 0.00 0.00 0.00 0.00 0.00 0.00 0.00 0.00 0.00 0.00 0.00 0.00 0.00 0.00 0.00 0.00 0.00 0.00 0.00 0.00 0.00 0.00 0.00 0.00 0.00 0.00 0.00 0.00 0.00 0.00 0.00 0.00 0.00 0.00 0.00 0.00 0.00 0.00 0.00 0.00 0.00 0.00 0.00 0.00 0.00 0.00 0.00 0.00 0.00 0.00 0.00 0.00 0.00 0.00 0.00 0.00 0.00 0.00 0.00 0.00 0.00 0.00 0.00 0.00 0.00 0.00 0.00 0.00 0.00 0.00 0.00 0.00 0.00 0.00 0.00 0.00 0.00 0.00 0.00 0.00 0.00 0.00 0.00 0.00 0.00 0.00 0.00 0.00 0.00 0.00 0.00 0.00 0.00 0.00 342.00 340.00 341.00 342.00 344.00 346.00 349.00 351.00 353.00 355.00 358.00 359.00 361.00 361.00 362.00 362.00 362.00 362.00 362.00 362.00 360.00 358.00 356.00 0.00 0.00 0.00 0.00 0.00 769.00 768.00 0.00 0.00 0.00 0.00 0.00 0.00 0.00 0.00 0.00 0.00 1057.00 1066.00 1071.00 1074.00 1076.00 1077.00 1077.00 1078.00 1078.00 1079.00 1082.00 1084.00 0.00 0.00 763.00 760.00 757.00 754.00 752.00 750.00 747.00 746.00 745.00 743.00 742.00 742.00 741.00 741.00 741.00 741.00 741.00 740.00 740.00 740.00 740.00 741.00 740.00 739.00 738.00 738.00 736.00 736.00 736.00 736.00 737.00 738.00 739.00 740.00 740.00 741.00 742.00 743.00 744.00 745.00 747.00 748.00 749.00 752.00 754.00 756.00 759.00 762.00 764.00 768.00 770.00 773.00 776.00 779.00 782.00 784.00 786.00 789.00 790.00 792.00 794.00 796.00 800.00 807.00 817.00 827.00 833.00 837.00 839.00 838.00 832.00 820.00 805.00 792.00 784.00 780.00 779.00 778.00 778.00 777.00 776.00 774.00 772.00 768.00 765.00 763.00 761.00 758.00 757.00 755.00 753.00 752.00 751.00 751.00 752.00 752.00 751.00 751.00 750.00 749.00 749.00 749.00 748.00 748.00 747.00 746.00 746.00 745.00 745.00 744.00 744.00 744.00 743.00 743.00 742.00 742.00 742.00 741.00 741.00 740.00 739.00 739.00 738.00 737.00 737.00 736.00 735.00 733.00 733.00 732.00 732.00 731.00 731.00 730.00 729.00 728.00 728.00 726.00 725.00 724.00 724.00 723.00 723.00 723.00 723.00 723.00 723.00 724.00 725.00 725.00 725.00 726.00 726.00 727.00 727.00 727.00 728.00 728.00 728.00 729.00 729.00 730.00 730.00 731.00 732.00 733.00 733.00 733.00 734.00 735.00 736.00 737.00 739.00 739.00 740.00 741.00 742.00 743.00 744.00 745.00 747.00 747.00 748.00 748.00 749.00 750.00 750.00 751.00 752.00 752.00 753.00 753.00 753.00 753.00 755.00 755.00 756.00 756.00 757.00 757.00 757.00 758.00 759.00 759.00 761.00 762.00 763.00 763.00 763.00 763.00 764.00 765.00 765.00 766.00 767.00 769.00 770.00 771.00 771.00 771.00 771.00 772.00 772.00 773.00 773.00 774.00 774.00 773.00 775.00 777.00 778.00 781.00 783.00 785.00 788.00 793.00 799.00 806.00 816.00 826.00 837.00 853.00 870.00 883.00 893.00 899.00 902.00 902.00 901.00 895.00 886.00 873.00 854.00 841.00 836.00 836.00 839.00 842.00 844.00 841.00 841.00 833.00 826.00 818.00 0.00 0.00 0.00 0.00 0.00 0.00 0.00 0.00 0.00 0.00 0.00 0.00 0.00 0.00 0.00 0.00 0.00 0.00 0.00 0.00 0.00 0.00 0.00 0.00 0.00 0.00 0.00 0.00 0.00 0.00 0.00 0.00 0.00 0.00 0.00 0.00 0.00 0.00 0.00 0.00 0.00 2323.00 0.00 0.00 2303.00 2298.00 2293.00 2289.00 2285.00 2281.00 2276.00 2271.00 2264.00 2258.00 2252.00 2245.00 2239.00 2233.00 2228.00 2222.00 2217.00 2210.00 2203.00 2193.00 2181.00 2162.00 0.00 0.00 0.00 2062.00 2055.00 2050.00 2046.00 2044.00 2044.00 2047.00 0.00 0.00 0.00 0.00 0.00 0.00 0.00 0.00 0.00 0.00 0.00 0.00 0.00 0.00 0.00 0.00 0.00 0.00 0.00 0.00 0.00 0.00
0.00 1987.00 1988.00 1985.00 1986.00 1986.00 0.00 0.00 0.00 0.00 0.00 0.00 1997.00 0.00 0.00 0.00 0.00 0.00 0.00 0.00 0.00 0.00 0.00 0.00 0.00 0.00 0.00 0.00 0.00 0.00 2039.00 0.00 0.00 0.00 0.00 0.00 0.00 0.00 0.00 0.00 0.00 0.00 0.00 0.00 0.00 0.00 0.00 0.00 0.00 0.00 0.00 0.00 0.00 0.00 0.00 0.00 0.00 0.00 0.00 0.00 0.00 0.00 0.00 0.00 0.00 0.00 0.00 0.00 0.00 0.00 0.00 0.00 0.00 0.00 0.00 0.00 0.00 0.00 0.00 0.00 0.00 0.00 0.00 0.00 0.00 0.00 0.00 0.00 0.00 0.00 0.00 0.00 0.00 0.00 0.00 0.00 0.00 0.00 0.00 0.00 0.00 0.00 0.00 0.00 0.00 0.00 0.00 0.00 339.00 342.00 344.00 345.00 346.00 348.00 350.00 352.00 354.00 357.00 359.00 360.00 361.00 361.00 362.00 362.00 362.00 362.00 361.00 360.00 358.00 356.00 0.00 0.00 0.00 0.00 767.00 769.00 768.00 0.00 0.00 0.00 0.00 0.00 0.00 0.00 0.00 0.00 0.00 1060.00 1068.00 1072.00 1075.00 1077.00 1078.00 1079.00 1080.00 1082.00 1086.00 1091.00 1097.00 0.00 0.00 0.00 763.00 760.00 756.00 754.00 752.00 749.00 747.00 746.00 744.00 743.00 742.00 742.00 741.00 741.00 741.00 740.00 740.00 741.00 740.00 740.00 740.00 739.00 738.00 736.00 736.00 735.00 735.00 735.00 736.00 737.00 738.00 738.00 739.00 740.00 741.00 742.00 743.00 744.00 745.00 746.00 747.00 748.00 750.00 752.00 755.00 757.00 761.00 763.00 767.00 769.00 773.00 775.00 778.00 780.00 782.00 784.00 786.00 788.00 789.00 791.00 792.00 794.00 799.00 806.00 816.00 826.00 832.00 836.00 836.00 830.00 819.00 803.00 791.00 784.00 779.00 778.00 777.00 777.00 777.00 776.00 774.00 772.00 768.00 765.00 763.00 760.00 758.00 756.00 754.00 753.00 752.00 751.00 751.00 751.00 751.00 751.00 751.00 750.00 749.00 748.00 748.00 747.00 747.00 746.00 746.00 745.00 745.00 744.00 744.00 744.00 743.00 743.00 743.00 742.00 742.00 742.00 741.00 740.00 740.00 739.00 738.00 737.00 737.00 736.00 735.00 734.00 733.00 732.00 731.00 731.00 730.00 730.00 729.00 729.00 728.00 728.00 727.00 725.00 725.00 724.00 723.00 723.00 723.00 722.00 722.00 723.00 723.00 724.00 724.00 725.00 725.00 725.00 726.00 726.00 727.00 727.00 727.00 727.00 728.00 729.00 729.00 730.00 731.00 732.00 733.00 733.00 733.00 734.00 735.00 736.00 738.00 739.00 739.00 740.00 741.00 742.00 743.00 744.00 745.00 746.00 747.00 747.00 748.00 749.00 749.00 750.00 750.00 751.00 752.00 753.00 753.00 753.00 754.00 754.00 754.00 755.00 756.00 756.00 756.00 757.00 757.00 758.00 759.00 760.00 761.00 763.00 763.00 763.00 763.00 764.00 764.00 765.00 766.00 768.00 769.00 770.00 771.00 771.00 771.00 771.00 772.00 773.00 773.00 773.00 773.00 773.00 773.00 774.00 776.00 777.00 779.00 782.00 785.00 787.00 792.00 798.00 805.00 814.00 825.00 835.00 853.00 870.00 884.00 895.00 900.00 902.00 901.00 898.00 890.00 879.00 859.00 841.00 830.00 825.00 825.00 829.00 832.00 833.00 832.00 829.00 825.00 818.00 812.00 0.00 0.00 0.00 0.00 0.00 0.00 0.00 0.00 0.00 0.00 0.00 0.00 0.00 0.00 0.00 0.00 0.00 0.00 0.00 0.00 0.00 0.00 0.00 0.00 0.00 0.00 0.00 0.00 0.00 0.00 0.00 0.00 0.00 0.00 0.00 0.00 0.00 0.00 0.00 0.00 0.00 2321.00 2315.00 2309.00 2303.00 2298.00 2292.00 2289.00 2284.00 2281.00 2277.00 2272.00 2265.00 2258.00 2250.00 2244.00 2238.00 2234.00 2227.00 2223.00 2217.00 2210.00 2202.00 2193.00 2181.00 0.00 0.00 0.00 0.00 0.00 2056.00 2053.00 2047.00 2043.00 2042.00 2043.00 2050.00 0.00 0.00 0.00 0.00 0.00 0.00 0.00 2830.00 0.00 0.00 0.00 0.00 0.00 0.00 0.00 0.00 0.00 0.00 0.00 0.00 0.00
1989.00 1992.00 1996.00 1995.00 1998.00 1997.00 0.00 0.00 0.00 0.00 2007.00 2014.00 2015.00 2017.00 2018.00 0.00 2015.00 2013.00 2012.00 0.00 0.00 0.00 0.00 0.00 0.00 0.00 0.00 0.00 0.00 0.00 2063.00 0.00 0.00 0.00 0.00 0.00 0.00 0.00 0.00 0.00 0.00 0.00 0.00 0.00 0.00 0.00 0.00 0.00 0.00 0.00 0.00 0.00 0.00 0.00 0.00 0.00 0.00 0.00 0.00 0.00 0.00 0.00 0.00 0.00 0.00 0.00 0.00 0.00 0.00 0.00 0.00 0.00 0.00 0.00 0.00 0.00 0.00 0.00 0.00 0.00 0.00 0.00 0.00 0.00 0.00 0.00 0.00 0.00 0.00 0.00 0.00 0.00 0.00 0.00 0.00 0.00 0.00 0.00 0.00 0.00 0.00 0.00 0.00 0.00 0.00 0.00 0.00 0.00 340.00 342.00 343.00 345.00 345.00 348.00 350.00 353.00 355.00 358.00 359.00 360.00 361.00 361.00 362.00 362.00 362.00 362.00 361.00 359.00 357.00 355.00 0.00 0.00 0.00 0.00 765.00 768.00 768.00 0.00 0.00 0.00 0.00 0.00 0.00 0.00 0.00 0.00 0.00 1063.00 1071.00 1073.00 1076.00 1078.00 1079.00 1080.00 1083.00 1087.00 1093.00 1099.00 1110.00 1116.00 0.00 0.00 0.00 762.00 758.00 756.00 754.00 751.00 749.00 747.00 745.00 744.00 743.00 742.00 741.00 741.00 741.00 741.00 740.00 740.00 740.00 739.00 738.00 737.00 736.00 735.00 735.00 734.00 734.00 734.00 735.00 736.00 737.00 738.00 739.00 739.00 740.00 741.00 742.00 743.00 744.00 745.00 746.00 747.00 749.00 751.00 753.00 756.00 759.00 762.00 765.00 768.00 772.00 774.00 777.00 779.00 781.00 783.00 784.00 785.00 787.00 788.00 788.00 790.00 793.00 798.00 805.00 816.00 825.00 831.00 833.00 828.00 816.00 801.00 790.00 783.00 779.00 778.00 777.00 777.00 776.00 776.00 774.00 772.00 768.00 766.00 763.00 760.00 757.00 756.00 754.00 752.00 751.00 751.00 751.00 751.00 751.00 751.00 750.00 750.00 749.00 748.00 747.00 747.00 746.00 746.00 745.00 745.00 744.00 744.00 744.00 744.00 743.00 743.00 743.00 742.00 742.00 741.00 741.00 740.00 739.00 738.00 737.00 737.00 736.00 736.00 735.00 734.00 733.00 732.00 731.00 730.00 730.00 729.00 729.00 728.00 728.00 727.00 727.00 725.00 725.00 724.00 723.00 723.00 722.00 722.00 722.00 722.00 722.00 723.00 723.00 724.00 724.00 725.00 726.00 726.00 726.00 727.00 726.00 727.00 728.00 728.00 729.00 730.00 730.00 731.00 732.00 733.00 733.00 734.00 735.00 736.00 737.00 739.00 739.00 740.00 741.00 742.00 743.00 744.00 745.00 745.00 746.00 747.00 748.00 749.00 749.00 750.00 750.00 751.00 751.00 752.00 753.00 753.00 754.00 754.00 754.00 755.00 755.00 756.00 756.00 757.00 757.00 757.00 758.00 759.00 761.00 762.00 763.00 763.00 763.00 763.00 764.00 765.00 766.00 768.00 769.00 770.00 770.00 771.00 770.00 771.00 771.00 772.00 772.00 773.00 773.00 774.00 773.00 774.00 775.00 776.00 778.00 781.00 784.00 787.00 792.00 798.00 805.00 813.00 821.00 836.00 851.00 870.00 885.00 895.00 899.00 900.00 898.00 892.00 883.00 867.00 842.00 826.00 815.00 815.00 818.00 823.00 825.00 828.00 826.00 823.00 819.00 814.00 809.00 0.00 0.00 0.00 0.00 0.00 0.00 0.00 0.00 0.00 0.00 0.00 0.00 0.00 0.00 0.00 0.00 0.00 0.00 0.00 0.00 0.00 0.00 0.00 0.00 0.00 0.00 0.00 0.00 0.00 0.00 0.00 0.00 0.00 0.00 0.00 0.00 0.00 0.00 0.00 0.00 0.00 2321.00 2314.00 2309.00 2303.00 2298.00 2292.00 2288.00 2284.00 2280.00 2276.00 2271.00 2265.00 2257.00 2249.00 2243.00 2237.00 2232.00 2226.00 2222.00 2216.00 2209.00 2201.00 2194.00 0.00 0.00 0.00 0.00 0.00 0.00 0.00 0.00 2046.00 2043.00 2040.00 2041.00 2045.00 0.00 0.00 0.00 0.00 0.00 0.00 0.00 0.00 0.00 0.00 2829.00 0.00 0.00 0.00 0.00 0.00 0.00 0.00 0.00 0.00 0.00
1996.00 1998.00 2003.00 2005.00 2009.00 2010.00 2013.00 2013.00 2016.00 2020.00 2020.00 2025.00 2025.00 2030.00 2028.00 2031.00 2028.00 2030.00 2031.00 2031.00 2028.00 2027.00 2029.00 2034.00 0.00 0.00 0.00 2047.00 2054.00 2063.00 2081.00 0.00 0.00 0.00 0.00 0.00 0.00 0.00 0.00 0.00 0.00 0.00 0.00 0.00 0.00 0.00 0.00 0.00 0.00 0.00 0.00 0.00 0.00 0.00 0.00 0.00 0.00 0.00 0.00 0.00 0.00 0.00 0.00 0.00 0.00 0.00 0.00 0.00 0.00 0.00 0.00 0.00 0.00 0.00 0.00 0.00 0.00 0.00 0.00 0.00 0.00 0.00 0.00 0.00 0.00 0.00 0.00 0.00 0.00 0.00 0.00 0.00 0.00 0.00 0.00 0.00 0.00 0.00 0.00 0.00 0.00 0.00 0.00 0.00 0.00 0.00 0.00 0.00 338.00 341.00 343.00 344.00 345.00 347.00 350.00 352.00 355.00 358.00 359.00 360.00 360.00 361.00 361.00 362.00 361.00 361.00 359.00 358.00 356.00 354.00 0.00 0.00 0.00 0.00 766.00 768.00 768.00 0.00 0.00 0.00 0.00 0.00 0.00 0.00 0.00 0.00 0.00 1065.00 1073.00 1075.00 1078.00 1080.00 1081.00 1083.00 1087.00 1094.00 1100.00 1108.00 1118.00 1125.00 1129.00 0.00 0.00 764.00 760.00 757.00 755.00 752.00 750.00 748.00 746.00 745.00 744.00 743.00 742.00 741.00 741.00 741.00 740.00 739.00 738.00 737.00 737.00 736.00 735.00 734.00 734.00 733.00 733.00 734.00 734.00 735.00 736.00 737.00 738.00 739.00 740.00 741.00 741.00 742.00 743.00 744.00 745.00 746.00 748.00 750.00 752.00 754.00 757.00 760.00 764.00 768.00 771.00 774.00 776.00 778.00 780.00 781.00 782.00 784.00 785.00 785.00 786.00 787.00 789.00 792.00 797.00 805.00 816.00 824.00 828.00 824.00 813.00 799.00 788.00 782.00 778.00 777.00 776.00 776.00 775.00 775.00 774.00 772.00 769.00 765.00 762.00 759.00 756.00 755.00 753.00 752.00 751.00 751.00 751.00 751.00 751.00 750.00 750.00 749.00 748.00 748.00 747.00 747.00 746.00 746.00 745.00 744.00 744.00 744.00 743.00 743.00 743.00 743.00 743.00 742.00 742.00 741.00 740.00 739.00 738.00 737.00 737.00 736.00 736.00 735.00 734.00 733.00 732.00 732.00 730.00 730.00 730.00 729.00 728.00 728.00 727.00 727.00 726.00 725.00 725.00 724.00 723.00 723.00 722.00 722.00 722.00 722.00 722.00 723.00 723.00 724.00 724.00 725.00 725.00 725.00 725.00 726.00 726.00 727.00 727.00 728.00 729.00 730.00 730.00 731.00 732.00 732.00 733.00 734.00 735.00 736.00 737.00 738.00 739.00 740.00 741.00 742.00 743.00 744.00 744.00 745.00 746.00 747.00 748.00 748.00 749.00 750.00 750.00 751.00 752.00 752.00 753.00 754.00 754.00 754.00 754.00 755.00 755.00 755.00 756.00 756.00 757.00 757.00 758.00 759.00 761.00 762.00 764.00 764.00 763.00 763.00 764.00 764.00 765.00 767.00 768.00 769.00 770.00 771.00 771.00 771.00 772.00 772.00 772.00 772.00 773.00 773.00 773.00 774.00 774.00 775.00 776.00 779.00 782.00 786.00 791.00 797.00 803.00 811.00 820.00 833.00 852.00 873.00 888.00 895.00 899.00 898.00 894.00 887.00 874.00 850.00 821.00 811.00 806.00 809.00 814.00 820.00 825.00 827.00 827.00 823.00 818.00 813.00 809.00 0.00 0.00 0.00 0.00 0.00 0.00 0.00 0.00 0.00 0.00 0.00 0.00 0.00 0.00 0.00 0.00 0.00 0.00 0.00 0.00 0.00 0.00 0.00 0.00 0.00 0.00 0.00 0.00 0.00 0.00 0.00 0.00 0.00 0.00 0.00 0.00 0.00 0.00 0.00 0.00 2329.00 2322.00 2316.00 2311.00 2304.00 2299.00 2293.00 2288.00 2284.00 2280.00 2276.00 2271.00 2264.00 2257.00 2249.00 2243.00 2236.00 2232.00 2226.00 2221.00 2215.00 2209.00 2201.00 2194.00 2184.00 0.00 0.00 0.00 0.00 0.00 0.00 0.00 2046.00 2043.00 2040.00 2040.00 2044.00 2047.00 0.00 0.00 0.00 0.00 0.00 0.00 0.00 0.00 0.00 0.00 0.00 0.00 0.00 0.00 0.00 0.00 0.00 0.00 0.00 0.00
1999.00 2003.00 2009.00 2011.00 2015.00 2018.00 2019.00 2021.00 2022.00 2024.00 2027.00 2031.00 2033.00 2036.00 2036.00 2038.00 2037.00 2036.00 2038.00 2039.00 2044.00 2044.00 2046.00 2045.00 2047.00 2049.00 2053.00 2058.00 0.00 2082.00 0.00 0.00 0.00 0.00 0.00 0.00 0.00 0.00 0.00 0.00 0.00 0.00 0.00 0.00 0.00 0.00 0.00 0.00 0.00 0.00 0.00 0.00 0.00 0.00 0.00 0.00 0.00 0.00 0.00 0.00 0.00 0.00 0.00 0.00 0.00 0.00 0.00 0.00 0.00 0.00 0.00 0.00 0.00 0.00 0.00 0.00 0.00 0.00 0.00 0.00 0.00 0.00 0.00 0.00 0.00 0.00 0.00 0.00 0.00 0.00 0.00 0.00 0.00 0.00 0.00 0.00 0.00 0.00 0.00 0.00 0.00 0.00 0.00 0.00 0.00 0.00 0.00 0.00 340.00 341.00 344.00 344.00 344.00 346.00 349.00 352.00 355.00 358.00 359.00 359.00 360.00 361.00 361.00 361.00 361.00 362.00 360.00 358.00 356.00 353.00 0.00 0.00 0.00 0.00 766.00 767.00 768.00 0.00 0.00 0.00 0.00 0.00 0.00 0.00 0.00 0.00 0.00 1068.00 1075.00 1077.00 1080.00 1082.00 1084.00 1085.00 1091.00 1097.00 1105.00 1113.00 1123.00 1130.00 1135.00 1137.00 0.00 765.00 761.00 758.00 756.00 753.00 751.00 749.00 747.00 746.00 744.00 743.00 743.00 742.00 741.00 740.00 738.00 737.00 736.00 735.00 735.00 734.00 734.00 733.00 733.00 733.00 733.00 734.00 734.00 734.00 735.00 736.00 737.00 738.00 739.00 740.00 741.00 741.00 742.00 743.00 744.00 745.00 747.00 748.00 749.00 752.00 755.00 758.00 762.00 767.00 771.00 774.00 776.00 778.00 779.00 780.00 781.00 782.00 783.00 783.00 784.00 785.00 786.00 788.00 791.00 797.00 805.00 816.00 821.00 818.00 809.00 797.00 787.00 781.00 778.00 777.00 776.00 775.00 775.00 774.00 773.00 771.00 768.00 765.00 762.00 759.00 756.00 755.00 753.00 752.00 751.00 751.00 751.00 750.00 750.00 750.00 749.00 748.00 748.00 747.00 747.00 746.00 745.00 745.00 745.00 744.00 744.00 744.00 743.00 743.00 743.00 743.00 743.00 742.00 741.00 740.00 739.00 738.00 738.00 737.00 736.00 735.00 735.00 734.00 734.00 733.00 732.00 731.00 730.00 730.00 730.00 729.00 728.00 728.00 727.00 726.00 726.00 725.00 725.00 725.00 724.00 723.00 722.00 722.00 722.00 722.00 722.00 723.00 723.00 724.00 724.00 724.00 725.00 725.00 725.00 726.00 726.00 727.00 727.00 727.00 728.00 729.00 729.00 731.00 732.00 732.00 733.00 734.00 735.00 736.00 737.00 738.00 739.00 740.00 741.00 742.00 743.00 743.00 744.00 745.00 746.00 747.00 748.00 749.00 749.00 750.00 750.00 751.00 751.00 752.00 753.00 754.00 754.00 754.00 754.00 755.00 755.00 756.00 756.00 757.00 757.00 757.00 758.00 759.00 760.00 762.00 764.00 764.00 763.00 764.00 764.00 765.00 765.00 767.00 768.00 768.00 770.00 771.00 771.00 771.00 771.00 771.00 771.00 771.00 772.00 773.00 772.00 773.00 773.00 773.00 775.00 778.00 781.00 786.00 791.00 797.00 802.00 809.00 818.00 835.00 853.00 876.00 888.00 894.00 896.00 893.00 889.00 876.00 859.00 827.00 805.00 800.00 798.00 803.00 809.00 817.00 824.00 828.00 827.00 824.00 817.00 812.00 0.00 0.00 0.00 0.00 0.00 0.00 0.00 0.00 0.00 0.00 0.00 0.00 0.00 0.00 0.00 0.00 0.00 0.00 0.00 0.00 0.00 0.00 0.00 0.00 0.00 0.00 0.00 0.00 0.00 0.00 0.00 0.00 0.00 0.00 0.00 0.00 0.00 0.00 0.00 0.00 2334.00 2327.00 2322.00 2315.00 2310.00 2304.00 2299.00 2293.00 2290.00 2285.00 2280.00 2274.00 2269.00 2262.00 2257.00 2249.00 2244.00 2237.00 2232.00 2226.00 2221.00 2215.00 2210.00 2202.00 2195.00 2186.00 2171.00 0.00 0.00 0.00 0.00 0.00 0.00 2046.00 2042.00 2040.00 2040.00 2043.00 2048.00 0.00 0.00 0.00 0.00 0.00 0.00 0.00 0.00 0.00 2832.00 0.00 0.00 0.00 0.00 0.00 0.00 0.00 0.00 0.00 0.00
2003.00 2006.00 2011.00 2014.00 2018.00 2019.00 2021.00 2023.00 2024.00 2027.00 2029.00 2033.00 2036.00 2039.00 2040.00 2043.00 2044.00 2046.00 2047.00 2049.00 2050.00 2050.00 2055.00 2054.00 2058.00 2063.00 0.00 2075.00 2084.00 0.00 0.00 0.00 0.00 0.00 0.00 0.00 0.00 0.00 0.00 0.00 0.00 0.00 0.00 0.00 0.00 0.00 0.00 0.00 0.00 0.00 0.00 0.00 0.00 0.00 0.00 0.00 0.00 0.00 0.00 0.00 0.00 0.00 0.00 0.00 0.00 0.00 0.00 0.00 0.00 0.00 0.00 0.00 0.00 0.00 0.00 0.00 0.00 0.00 0.00 0.00 0.00 0.00 0.00 0.00 0.00 0.00 0.00 0.00 0.00 0.00 0.00 0.00 0.00 0.00 0.00 0.00 0.00 0.00 0.00 0.00 0.00 0.00 0.00 0.00 0.00 0.00 0.00 0.00 0.00 340.00 342.00 342.00 343.00 345.00 348.00 351.00 354.00 357.00 358.00 359.00 359.00 360.00 360.00 361.00 361.00 362.00 361.00 360.00 357.00 355.00 0.00 0.00 0.00 0.00 765.00 767.00 768.00 0.00 0.00 0.00 0.00 0.00 0.00 0.00 0.00 0.00 0.00 1071.00 1078.00 1080.00 1083.00 1085.00 1087.00 1089.00 1095.00 1103.00 1110.00 1120.00 1129.00 1136.00 1139.00 1142.00 0.00 0.00 764.00 761.00 758.00 755.00 753.00 750.00 749.00 747.00 745.00 744.00 743.00 741.00 740.00 738.00 737.00 735.00 734.00 734.00 734.00 734.00 733.00 733.00 733.00 733.00 733.00 733.00 734.00 734.00 735.00 736.00 737.00 738.00 738.00 739.00 740.00 740.00 741.00 742.00 743.00 744.00 746.00 747.00 748.00 750.00 753.00 757.00 761.00 766.00 770.00 773.00 776.00 777.00 779.00 779.00 780.00 781.00 781.00 781.00 782.00 783.00 783.00 785.00 787.00 790.00 796.00 805.00 813.00 812.00 804.00 794.00 785.00 779.00 777.00 775.00 774.00 774.00 774.00 774.00 773.00 771.00 768.00 765.00 762.00 758.00 755.00 754.00 752.00 751.00 750.00 750.00 750.00 750.00 749.00 749.00 749.00 748.00 747.00 747.00 746.00 745.00 745.00 745.00 744.00 744.00 744.00 744.00 743.00 743.00 743.00 743.00 742.00 741.00 741.00 740.00 739.00 738.00 737.00 736.00 736.00 735.00 734.00 734.00 733.00 733.00 732.00 731.00 730.00 729.00 729.00 728.00 727.00 727.00 726.00 726.00 725.00 725.00 725.00 724.00 724.00 723.00 722.00 722.00 722.00 722.00 722.00 723.00 723.00 724.00 724.00 724.00 724.00 724.00 725.00 725.00 726.00 726.00 727.00 727.00 727.00 728.00 729.00 730.00 731.00 732.00 733.00 734.00 734.00 735.00 737.00 738.00 738.00 740.00 741.00 741.00 742.00 743.00 744.00 745.00 746.00 747.00 748.00 748.00 749.00 749.00 750.00 750.00 751.00 752.00 752.00 753.00 753.00 754.00 754.00 754.00 755.00 756.00 756.00 757.00 757.00 757.00 758.00 759.00 760.00 762.00 764.00 764.00 764.00 764.00 764.00 765.00 765.00 767.00 767.00 768.00 769.00 771.00 771.00 772.00 772.00 772.00 772.00 772.00 772.00 773.00 773.00 773.00 773.00 773.00 774.00 777.00 781.00 786.00 791.00 796.00 801.00 808.00 818.00 836.00 860.00 877.00 889.00 893.00 893.00 888.00 881.00 864.00 834.00 806.00 795.00 792.00 793.00 800.00 808.00 817.00 823.00 827.00 827.00 824.00 818.00 814.00 0.00 0.00 0.00 0.00 0.00 0.00 0.00 0.00 0.00 0.00 0.00 0.00 0.00 0.00 0.00 0.00 0.00 0.00 0.00 0.00 0.00 0.00 0.00 0.00 0.00 0.00 0.00 0.00 0.00 0.00 0.00 0.00 0.00 0.00 0.00 0.00 0.00 0.00 0.00 0.00 2333.00 2327.00 2321.00 2316.00 2309.00 2305.00 2300.00 2295.00 2290.00 2285.00 2279.00 2272.00 2267.00 2261.00 2255.00 2248.00 2243.00 2237.00 2232.00 2226.00 2221.00 2216.00 2210.00 2202.00 2195.00 2187.00 2171.00 0.00 0.00 0.00 0.00 0.00 0.00 2046.00 2041.00 2039.00 2038.00 2043.00 0.00 0.00 0.00 0.00 0.00 0.00 0.00 0.00 0.00 0.00 0.00 0.00 0.00 0.00 0.00 0.00 0.00 0.00 0.00 0.00 0.00
2002.00 2004.00 2011.00 2013.00 2018.00 2019.00 2021.00 2024.00 2026.00 2028.00 2031.00 2034.00 2037.00 2040.00 2041.00 2042.00 2045.00 2045.00 2048.00 2051.00 2055.00 2056.00 2062.00 2063.00 2067.00 2072.00 0.00 0.00 0.00 0.00 0.00 0.00 0.00 0.00 0.00 0.00 0.00 0.00 0.00 0.00 0.00 0.00 0.00 0.00 0.00 0.00 0.00 0.00 0.00 0.00 0.00 0.00 0.00 0.00 0.00 0.00 0.00 0.00 0.00 0.00 0.00 0.00 0.00 0.00 0.00 0.00 0.00 0.00 0.00 0.00 0.00 0.00 0.00 0.00 0.00 0.00 0.00 0.00 0.00 0.00 0.00 0.00 0.00 0.00 0.00 0.00 0.00 0.00 0.00 0.00 0.00 0.00 0.00 0.00 0.00 0.00 0.00 0.00 0.00 0.00 0.00 0.00 0.00 0.00 0.00 0.00 0.00 0.00 336.00 338.00 339.00 341.00 343.00 345.00 348.00 351.00 354.00 357.00 358.00 359.00 359.00 360.00 360.00 361.00 361.00 362.00 361.00 359.00 357.00 355.00 0.00 0.00 0.00 0.00 764.00 766.00 767.00 0.00 0.00 0.00 0.00 0.00 0.00 0.00 0.00 0.00 0.00 1073.00 1080.00 1082.00 1085.00 1087.00 1089.00 1093.00 1100.00 1107.00 1115.00 1124.00 1133.00 1139.00 1142.00 1144.00 1144.00 0.00 765.00 762.00 760.00 757.00 754.00 752.00 750.00 748.00 746.00 745.00 743.00 740.00 738.00 736.00 735.00 733.00 733.00 732.00 733.00 733.00 733.00 733.00 733.00 733.00 733.00 733.00 734.00 734.00 734.00 735.00 736.00 737.00 737.00 738.00 738.00 739.00 740.00 741.00 742.00 743.00 744.00 745.00 746.00 748.00 751.00 754.00 758.00 764.00 768.00 772.00 775.00 777.00 778.00 778.00 778.00 779.00 779.00 780.00 781.00 781.00 782.00 783.00 784.00 786.00 790.00 796.00 803.00 804.00 799.00 790.00 783.00 778.00 776.00 775.00 774.00 774.00 773.00 773.00 772.00 771.00 768.00 764.00 761.00 758.00 755.00 753.00 752.00 751.00 750.00 750.00 749.00 749.00 748.00 749.00 748.00 748.00 747.00 747.00 746.00 745.00 744.00 744.00 743.00 743.00 743.00 743.00 743.00 743.00 743.00 742.00 742.00 741.00 740.00 739.00 738.00 737.00 737.00 736.00 736.00 735.00 734.00 733.00 733.00 732.00 731.00 731.00 730.00 729.00 729.00 728.00 727.00 727.00 726.00 725.00 725.00 725.00 724.00 724.00 724.00 723.00 723.00 722.00 722.00 722.00 722.00 723.00 723.00 723.00 724.00 724.00 724.00 724.00 725.00 725.00 726.00 726.00 727.00 727.00 728.00 728.00 729.00 730.00 731.00 731.00 732.00 733.00 734.00 735.00 736.00 737.00 738.00 739.00 740.00 741.00 742.00 743.00 743.00 744.00 745.00 746.00 747.00 748.00 748.00 749.00 749.00 750.00 750.00 751.00 752.00 753.00 753.00 754.00 754.00 755.00 755.00 756.00 757.00 757.00 757.00 757.00 758.00 759.00 760.00 762.00 764.00 764.00 764.00 764.00 764.00 764.00 765.00 766.00 767.00 767.00 769.00 770.00 770.00 771.00 771.00 771.00 771.00 771.00 772.00 773.00 773.00 773.00 773.00 773.00 773.00 776.00 780.00 786.00 792.00 797.00 802.00 808.00 818.00 835.00 862.00 879.00 887.00 890.00 888.00 881.00 870.00 841.00 808.00 796.00 789.00 789.00 792.00 798.00 806.00 815.00 821.00 826.00 827.00 825.00 820.00 0.00 0.00 0.00 0.00 0.00 0.00 0.00 0.00 0.00 0.00 0.00 0.00 0.00 0.00 0.00 0.00 0.00 0.00 0.00 0.00 0.00 0.00 0.00 0.00 0.00 0.00 0.00 0.00 0.00 0.00 0.00 0.00 0.00 0.00 0.00 0.00 0.00 0.00 0.00 0.00 0.00 2334.00 2326.00 2320.00 2316.00 2310.00 2306.00 2302.00 2295.00 2291.00 2284.00 2277.00 2269.00 2264.00 2257.00 2252.00 2247.00 2243.00 2237.00 2233.00 2227.00 2221.00 2216.00 2210.00 2202.00 2195.00 2188.00 2175.00 2159.00 0.00 0.00 0.00 0.00 2051.00 2046.00 2041.00 2039.00 2039.00 2045.00 0.00 0.00 0.00 0.00 0.00 0.00 0.00 0.00 0.00 0.00 0.00 0.00 0.00 0.00 0.00 0.00 0.00 0.00 0.00 0.00 0.00
2003.00 2006.00 2010.00 2012.00 2016.00 2017.00 2020.00 2023.00 2026.00 2028.00 2032.00 2035.00 2036.00 2039.00 2041.00 2043.00 2047.00 2047.00 2050.00 2053.00 2055.00 2057.00 2063.00 2068.00 2072.00 2079.00 0.00 0.00 0.00 0.00 0.00 0.00 0.00 0.00 0.00 0.00 0.00 0.00 0.00 0.00 0.00 0.00 0.00 0.00 0.00 0.00 0.00 0.00 0.00 0.00 0.00 0.00 0.00 0.00 0.00 0.00 0.00 0.00 0.00 0.00 0.00 0.00 0.00 0.00 0.00 0.00 0.00 0.00 0.00 0.00 0.00 0.00 0.00 0.00 0.00 0.00 0.00 0.00 0.00 0.00 0.00 0.00 0.00 0.00 0.00 0.00 0.00 0.00 0.00 0.00 0.00 0.00 0.00 0.00 0.00 0.00 0.00 0.00 0.00 0.00 0.00 0.00 0.00 0.00 0.00 0.00 0.00 0.00 333.00 336.00 339.00 342.00 344.00 346.00 349.00 351.00 353.00 356.00 357.00 358.00 359.00 359.00 360.00 360.00 361.00 361.00 360.00 359.00 356.00 354.00 0.00 0.00 0.00 0.00 763.00 765.00 0.00 0.00 0.00 0.00 0.00 0.00 0.00 0.00 0.00 0.00 1045.00 1078.00 1082.00 1084.00 1087.00 1089.00 1092.00 1096.00 1104.00 1111.00 1119.00 1127.00 1136.00 1142.00 1146.00 1147.00 1148.00 0.00 0.00 763.00 760.00 758.00 755.00 753.00 751.00 748.00 746.00 743.00 741.00 738.00 736.00 734.00 733.00 732.00 733.00 732.00 733.00 733.00 733.00 733.00 733.00 733.00 733.00 734.00 734.00 734.00 734.00 735.00 735.00 736.00 737.00 737.00 738.00 739.00 739.00 740.00 741.00 742.00 743.00 744.00 745.00 747.00 750.00 753.00 757.00 762.00 767.00 771.00 774.00 776.00 777.00 777.00 777.00 777.00 778.00 778.00 779.00 780.00 780.00 781.00 782.00 783.00 785.00 790.00 795.00 796.00 793.00 787.00 781.00 777.00 775.00 774.00 773.00 773.00 772.00 772.00 771.00 770.00 768.00 764.00 761.00 758.00 755.00 753.00 751.00 750.00 749.00 749.00 748.00 748.00 748.00 748.00 747.00 747.00 747.00 746.00 746.00 745.00 745.00 744.00 743.00 743.00 743.00 743.00 742.00 742.00 742.00 742.00 742.00 741.00 740.00 739.00 738.00 737.00 737.00 735.00 735.00 734.00 733.00 733.00 733.00 732.00 731.00 730.00 730.00 729.00 728.00 728.00 727.00 726.00 726.00 725.00 725.00 725.00 724.00 724.00 724.00 723.00 723.00 723.00 722.00 722.00 722.00 723.00 723.00 723.00 724.00 724.00 723.00 724.00 724.00 725.00 725.00 726.00 726.00 727.00 728.00 728.00 729.00 730.00 731.00 731.00 732.00 733.00 734.00 735.00 736.00 737.00 738.00 739.00 740.00 741.00 742.00 742.00 743.00 744.00 745.00 746.00 747.00 747.00 748.00 748.00 749.00 749.00 750.00 751.00 752.00 752.00 753.00 754.00 754.00 755.00 755.00 756.00 757.00 757.00 757.00 758.00 758.00 759.00 760.00 762.00 764.00 764.00 764.00 764.00 764.00 764.00 764.00 765.00 766.00 766.00 768.00 769.00 770.00 770.00 771.00 771.00 771.00 771.00 772.00 773.00 772.00 773.00 773.00 773.00 774.00 776.00 779.00 785.00 790.00 795.00 800.00 806.00 817.00 835.00 863.00 877.00 884.00 885.00 882.00 874.00 851.00 820.00 795.00 789.00 786.00 787.00 791.00 797.00 804.00 814.00 819.00 824.00 826.00 827.00 0.00 0.00 0.00 0.00 0.00 0.00 0.00 0.00 0.00 0.00 0.00 0.00 0.00 0.00 0.00 0.00 0.00 0.00 0.00 0.00 0.00 0.00 0.00 0.00 0.00 0.00 0.00 0.00 0.00 0.00 0.00 0.00 0.00 0.00 0.00 0.00 0.00 0.00 0.00 0.00 0.00 0.00 2333.00 2326.00 2319.00 2314.00 2309.00 2306.00 2302.00 2296.00 2291.00 2285.00 2277.00 2269.00 2264.00 2257.00 2251.00 2246.00 2242.00 2237.00 2233.00 2227.00 2222.00 2217.00 2211.00 2203.00 2196.00 2189.00 2176.00 2160.00 0.00 0.00 2072.00 2060.00 2051.00 2046.00 2041.00 2038.00 2039.00 2043.00 0.00 0.00 0.00 0.00 0.00 0.00 0.00 0.00 0.00 0.00 0.00 0.00 0.00 0.00 0.00 0.00 0.00 0.00 0.00 0.00 0.00
2002.00 2006.00 2009.00 2011.00 2015.00 2016.00 2020.00 2021.00 2025.00 2028.00 2033.00 2035.00 2038.00 2039.00 2041.00 2042.00 2045.00 2047.00 2050.00 2053.00 2056.00 2060.00 2065.00 2071.00 2075.00 2081.00 0.00 0.00 0.00 0.00 0.00 0.00 0.00 0.00 0.00 0.00 0.00 0.00 0.00 0.00 0.00 0.00 0.00 0.00 0.00 0.00 0.00 0.00 0.00 0.00 0.00 0.00 0.00 0.00 0.00 0.00 0.00 0.00 0.00 0.00 0.00 0.00 0.00 0.00 0.00 0.00 0.00 0.00 0.00 0.00 0.00 0.00 0.00 0.00 0.00 0.00 0.00 0.00 0.00 0.00 0.00 0.00 0.00 0.00 0.00 0.00 0.00 0.00 0.00 0.00 0.00 0.00 0.00 0.00 0.00 0.00 0.00 0.00 0.00 0.00 0.00 0.00 0.00 0.00 0.00 0.00 0.00 0.00 333.00 0.00 340.00 342.00 345.00 346.00 349.00 351.00 353.00 355.00 358.00 358.00 359.00 359.00 360.00 360.00 361.00 361.00 361.00 359.00 356.00 354.00 351.00 0.00 0.00 0.00 762.00 764.00 0.00 0.00 0.00 0.00 0.00 0.00 0.00 0.00 0.00 0.00 0.00 1077.00 1082.00 1084.00 1087.00 1091.00 1094.00 1099.00 1106.00 1114.00 1122.00 1130.00 1139.00 1144.00 1147.00 1148.00 1149.00 0.00 0.00 765.00 762.00 760.00 757.00 754.00 751.00 747.00 744.00 740.00 737.00 735.00 733.00 732.00 732.00 732.00 732.00 732.00 733.00 733.00 733.00 733.00 733.00 734.00 734.00 734.00 734.00 734.00 734.00 734.00 735.00 735.00 736.00 736.00 738.00 738.00 739.00 739.00 740.00 740.00 741.00 743.00 744.00 746.00 748.00 751.00 755.00 760.00 765.00 769.00 773.00 775.00 776.00 775.00 776.00 776.00 776.00 777.00 778.00 778.00 779.00 779.00 779.00 780.00 782.00 785.00 789.00 789.00 788.00 784.00 779.00 776.00 774.00 773.00 773.00 772.00 772.00 772.00 771.00 770.00 767.00 764.00 760.00 757.00 755.00 753.00 751.00 750.00 749.00 748.00 748.00 748.00 747.00 747.00 747.00 746.00 746.00 745.00 745.00 744.00 744.00 744.00 743.00 743.00 742.00 742.00 742.00 742.00 742.00 742.00 741.00 740.00 739.00 738.00 738.00 737.00 736.00 735.00 735.00 734.00 733.00 732.00 732.00 731.00 730.00 730.00 729.00 728.00 728.00 727.00 726.00 726.00 725.00 725.00 725.00 724.00 724.00 723.00 723.00 723.00 723.00 722.00 722.00 722.00 722.00 722.00 723.00 723.00 723.00 723.00 723.00 724.00 724.00 725.00 725.00 726.00 727.00 727.00 728.00 728.00 729.00 729.00 730.00 731.00 732.00 733.00 734.00 735.00 736.00 737.00 737.00 738.00 740.00 740.00 741.00 742.00 743.00 744.00 744.00 745.00 746.00 747.00 748.00 748.00 749.00 749.00 750.00 750.00 751.00 752.00 753.00 753.00 754.00 755.00 756.00 756.00 757.00 757.00 757.00 758.00 758.00 759.00 760.00 762.00 763.00 764.00 764.00 763.00 763.00 764.00 764.00 765.00 766.00 766.00 767.00 769.00 769.00 769.00 771.00 771.00 771.00 771.00 772.00 773.00 773.00 773.00 773.00 773.00 773.00 775.00 779.00 784.00 789.00 795.00 800.00 805.00 813.00 831.00 857.00 874.00 880.00 880.00 875.00 860.00 827.00 802.00 790.00 785.00 784.00 788.00 793.00 799.00 805.00 812.00 818.00 823.00 827.00 829.00 0.00 0.00 0.00 0.00 0.00 0.00 0.00 0.00 0.00 0.00 0.00 0.00 0.00 0.00 0.00 0.00 0.00 0.00 0.00 0.00 0.00 0.00 0.00 0.00 0.00 0.00 0.00 0.00 0.00 0.00 0.00 0.00 0.00 0.00 0.00 0.00 0.00 0.00 0.00 0.00 0.00 0.00 0.00 2323.00 2318.00 2311.00 2308.00 2306.00 2302.00 2296.00 2291.00 2282.00 2276.00 2268.00 2264.00 2257.00 2252.00 2246.00 2243.00 2237.00 2233.00 2228.00 2222.00 2216.00 2210.00 2203.00 2197.00 2190.00 2179.00 2162.00 2132.00 2096.00 2071.00 2061.00 2051.00 2047.00 2041.00 2038.00 2037.00 2041.00 0.00 0.00 0.00 0.00 0.00 0.00 0.00 0.00 0.00 0.00 0.00 0.00 0.00 0.00 0.00 0.00 0.00 0.00 0.00 0.00 0.00
2004.00 2007.00 2010.00 2012.00 2016.00 2017.00 2021.00 2023.00 2027.00 2029.00 2033.00 2034.00 2036.00 2037.00 2039.00 2042.00 2046.00 2049.00 2052.00 2055.00 2057.00 2061.00 2066.00 2073.00 2078.00 2085.00 2090.00 0.00 0.00 0.00 0.00 0.00 0.00 0.00 0.00 0.00 0.00 0.00 0.00 0.00 0.00 0.00 0.00 0.00 0.00 0.00 0.00 0.00 0.00 0.00 0.00 0.00 0.00 0.00 0.00 0.00 0.00 0.00 0.00 0.00 0.00 0.00 0.00 0.00 0.00 0.00 0.00 0.00 0.00 0.00 0.00 0.00 0.00 0.00 0.00 0.00 0.00 0.00 0.00 0.00 0.00 0.00 0.00 0.00 0.00 0.00 0.00 0.00 0.00 0.00 0.00 0.00 0.00 0.00 0.00 0.00 0.00 0.00 0.00 0.00 0.00 0.00 0.00 0.00 0.00 0.00 0.00 0.00 0.00 336.00 338.00 341.00 344.00 346.00 348.00 350.00 353.00 354.00 357.00 358.00 359.00 359.00 360.00 360.00 360.00 360.00 360.00 358.00 355.00 353.00 350.00 0.00 0.00 0.00 760.00 762.00 0.00 0.00 0.00 0.00 0.00 0.00 0.00 0.00 0.00 0.00 1070.00 1079.00 1083.00 1085.00 1089.00 1093.00 1097.00 1104.00 1111.00 1118.00 1125.00 1134.00 1141.00 1147.00 1150.00 1151.00 1152.00 1152.00 0.00 0.00 763.00 760.00 757.00 753.00 748.00 743.00 740.00 736.00 734.00 732.00 732.00 731.00 732.00 732.00 733.00 733.00 733.00 733.00 733.00 733.00 733.00 734.00 734.00 734.00 734.00 734.00 734.00 734.00 735.00 736.00 736.00 737.00 737.00 738.00 738.00 738.00 739.00 739.00 740.00 741.00 743.00 745.00 747.00 750.00 753.00 758.00 763.00 768.00 772.00 774.00 775.00 774.00 774.00 774.00 775.00 776.00 777.00 777.00 777.00 777.00 778.00 778.00 779.00 781.00 784.00 785.00 784.00 782.00 778.00 774.00 773.00 772.00 771.00 771.00 771.00 771.00 771.00 770.00 767.00 764.00 760.00 757.00 754.00 752.00 750.00 749.00 749.00 748.00 747.00 747.00 747.00 747.00 747.00 746.00 746.00 745.00 745.00 744.00 744.00 743.00 743.00 742.00 742.00 742.00 741.00 741.00 741.00 741.00 740.00 740.00 739.00 738.00 737.00 737.00 736.00 735.00 735.00 733.00 733.00 732.00 732.00 731.00 730.00 730.00 729.00 728.00 727.00 726.00 726.00 725.00 725.00 725.00 725.00 725.00 724.00 723.00 723.00 723.00 722.00 722.00 722.00 722.00 722.00 722.00 723.00 723.00 723.00 723.00 723.00 723.00 724.00 724.00 725.00 726.00 727.00 727.00 728.00 729.00 729.00 730.00 731.00 731.00 732.00 733.00 734.00 734.00 735.00 736.00 737.00 738.00 739.00 740.00 741.00 742.00 743.00 743.00 744.00 745.00 746.00 746.00 747.00 748.00 749.00 750.00 750.00 750.00 751.00 752.00 752.00 753.00 754.00 754.00 755.00 756.00 757.00 757.00 757.00 758.00 758.00 758.00 759.00 761.00 762.00 763.00 764.00 763.00 763.00 764.00 764.00 765.00 766.00 766.00 766.00 768.00 768.00 769.00 770.00 771.00 771.00 771.00 772.00 772.00 772.00 772.00 772.00 773.00 773.00 775.00 779.00 784.00 788.00 793.00 798.00 803.00 812.00 829.00 851.00 867.00 873.00 872.00 864.00 843.00 811.00 793.00 785.00 782.00 783.00 788.00 793.00 800.00 807.00 814.00 820.00 826.00 829.00 832.00 0.00 0.00 0.00 0.00 0.00 0.00 0.00 0.00 0.00 0.00 0.00 0.00 0.00 0.00 0.00 0.00 0.00 0.00 0.00 0.00 0.00 0.00 0.00 0.00 0.00 0.00 0.00 0.00 0.00 0.00 0.00 0.00 0.00 0.00 0.00 0.00 0.00 0.00 0.00 0.00 0.00 0.00 0.00 0.00 2318.00 2312.00 2308.00 2303.00 2300.00 2295.00 2289.00 2282.00 2275.00 2269.00 2264.00 2258.00 2252.00 2246.00 2242.00 2236.00 2232.00 2226.00 2221.00 2215.00 2209.00 2203.00 2197.00 2189.00 2179.00 2163.00 2143.00 2096.00 2072.00 2061.00 2051.00 2046.00 2041.00 2038.00 2036.00 2038.00 0.00 0.00 0.00 0.00 0.00 0.00 0.00 0.00 0.00 0.00 0.00 0.00 0.00 0.00 0.00 0.00 0.00 0.00 0.00 0.00 0.00
